ply
format ascii 1.0
element vertex 1280
property float x
property float y
property float z
property uchar red
property uchar green
property uchar blue
end_header
89.6783 58.2374 -88.9036 255 255 255
12.0362 44.8624 -72.1943 255 255 255
107.975 7.89882 -60.5551 255 255 255
108.341 7.98491 -60.9375 255 255 255
-2.93078 1.7492 -32.5687 255 255 255
-3.93271 1.60093 -54.2113 255 255 255
0.383925 1.01453 -84.9278 255 255 255
110.146 -1.68964 -72.732 255 255 255
0.10277 -5.72176 -76.7652 255 255 255
-0.200906 -6.12488 -74.0574 255 255 255
-5.07673 -7.04696 -55.9508 255 255 255
-2.17217 -16.4745 -89.335 255 255 255
32.2811 -15.1218 -67.3702 255 255 255
71.5643 -13.7687 -51.5923 255 255 255
-2.38061 -15.1523 -43.6271 255 255 255
-2.37233 -15.9442 -43.6082 255 255 255
-3.33707 -16.7369 -45.3684 255 255 255
71.291 -14.1967 -31.5981 255 255 255
26.3076 -11.6324 -18.4481 255 255 255
11.5611 60.0161 -73.3499 255 255 255
94.73 61.4819 -73.8314 255 255 255
93.0003 58.5353 -83.1891 255 255 255
-1.55366 -0.515254 -63.8869 255 255 255
-2.98946 -2.48618 -56.9673 255 255 255
12.8517 -6.98749 -107.544 255 255 255
94.5213 -7.71934 -103.559 255 255 255
-2.36204 -18.2997 -87.3417 255 255 255
33.9698 -12.4409 -39.5194 255 255 255
-3.93925 -16.6021 -48.0828 255 255 255
72.668 -12.6568 -20.8028 255 255 255
33.7058 -14.7809 -6.81875 255 255 255
10.7044 53.958 -69.1086 255 255 255
-2.0328 -12.2868 -60.5054 255 255 255
0.405253 -17.773 -97.2872 255 255 255
35.5368 -17.2887 -69.7168 255 255 255
71.3669 -16.0478 -48.3352 255 255 255
31.6391 -14.7808 -7.19745 255 255 255
33.4422 -14.7502 -6.40503 255 255 255
5.872 56.7718 -64.5589 255 255 255
96.7624 63.127 -77.9604 255 255 255
95.2877 61.4936 -75.7372 255 255 255
18.2382 57.541 -74.1666 255 255 255
18.2382 57.541 -74.1666 255 255 255
99.5731 58.6789 -73.8161 255 255 255
91.0478 61.2598 -88.737 255 255 255
93.927 56.8506 -84.1332 255 255 255
-2.87204 -14.5989 -60.2426 255 255 255
26.6277 -11.8438 -19.4903 255 255 255
104.54 -4.27594 -91.8066 255 255 255
-1.82898 -5.85811 -38.2374 255 255 255
-2.28301 -7.10339 -38.1078 255 255 255
-0.752167 -11.276 -78.4647 255 255 255
8.47265 52.7304 -74.5222 255 255 255
18.493 49.4823 -70.8588 255 255 255
103.678 52.7332 -78.645 255 255 255
-2.32392 1.83853 -45.2836 255 255 255
10.4304 -6.13364 -76.6034 255 255 255
33.4611 -16.1936 -70.5087 255 255 255
5.98842 59.5357 -68.6437 255 255 255
6.88726 54.9695 -70.5852 255 255 255
32.8668 -11.0621 -54.4837 255 255 255
101.73 53.5262 -81.4509 255 255 255
-5.41173 4.38447 -7.56043 255 255 255
-6.13844 3.43031 2.00218 255 255 255
-8.50661 1.99374 28.748 255 255 255
-9.08543 -15.5644 -0.855946 255 255 255
-8.7271 11.557 26.4394 255 255 255
-8.86473 12.921 31.834 255 255 255
-8.21906 0.948494 26.0685 255 255 255
-1.88546 -2.61135 -31.7744 255 255 255
-9.72637 -2.93526 -1.38778 255 255 255
-11.9915 10.391 64.0045 255 255 255
-502.851 -558.868 -351.563 255 255 255
114.119 12.2123 -99.874 255 255 255
109.46 8.16567 -66.3628 255 255 255
-1.45834 -0.0430676 -50.8755 255 255 255
97.4779 -7.43267 -105.006 255 255 255
104.227 -7.69129 -104.957 255 255 255
-0.920253 -8.44301 -92.6912 255 255 255
-4.71283 -7.16549 -59.9322 255 255 255
-1.76316 -15.5373 -69.3719 255 255 255
52.5832 -18.8603 -46.3094 255 255 255
28.0113 -11.2332 -1.2395 255 255 255
-17.6127 -54.8436 -52.6539 255 255 255
17.8647 59.2198 -78.2314 255 255 255
109.134 9.84548 -63.5961 255 255 255
-2.32579 1.71359 -44.4187 255 255 255
-4.82198 -7.07953 -55.5382 255 255 255
-1.90906 -11.5377 -89.0379 255 255 255
-1.90906 -11.5377 -89.0379 255 255 255
-1.97413 -18.7966 -90.927 255 255 255
21.805 58.8183 -150.125 255 255 255
14.9088 55.3893 -152.367 255 255 255
71.0194 -18.3938 -64.8954 255 255 255
19.8311 64.688 -72.5988 255 255 255
-2.49496 -14.0836 -68.668 255 255 255
96.5918 57.3908 -82.7195 255 255 255
-3.4244 -2.61678 -26.3328 255 255 255
-1.76982 -1.58236 -31.4216 255 255 255
2.03564 59.7945 -73.6921 255 255 255
-8.51692 7.86966 27.8001 255 255 255
-16.0308 -9.18419 6.86202 255 255 255
0.915118 2.01783 75.1634 255 255 255
2.77742 1.29079 75.6771 255 255 255
0.775402 2.01954 75.9001 255 255 255
0.775402 2.01954 75.9001 255 255 255
0.789859 1.62973 76.0501 255 255 255
-171.663 42.7102 -135.23 255 255 255
-15.2232 12.5781 105.419 255 255 255
-15.0998 11.5718 103.959 255 255 255
82.2899 2.77981 61.8466 255 255 255
-15.3586 13.1561 105.783 255 255 255
79.5492 -0.982939 104.301 255 255 255
-8.54718 4.03465 112.273 255 255 255
79.7879 -0.877364 104.135 255 255 255
-15.4236 10.5682 105.899 255 255 255
79.3842 -1.95356 104.551 255 255 255
79.9836 -13.8726 100.767 255 255 255
-14.8635 9.58679 104.798 255 255 255
42.8206 -9.52038 135.686 255 255 255
-25.6486 -3.08392 -2.05054 255 255 255
-9.72851 -8.50135 32.7749 255 255 255
-4.84725 2.85708 -13.7774 255 255 255
-117.359 13.5713 -262.65 255 255 255
-19.9306 -9.732 7.93823 255 255 255
-11.5633 -14.9552 8.97399 255 255 255
-119.205 18.3881 -264.987 255 255 255
-120.117 16.5223 -265.587 255 255 255
-8.61939 6.03542 31.2091 255 255 255
-8.66493 6.0108 30.9904 255 255 255
-8.56067 5.96594 28.8431 255 255 255
-2.97143 2.90515 -32.3338 255 255 255
-2.85963 2.76867 -34.2753 255 255 255
-5.767 1.6059 -2.00203 255 255 255
-6.19634 1.11145 2.93222 255 255 255
-5.88148 1.02555 -0.614035 255 255 255
-5.88148 1.02555 -0.614035 255 255 255
-0.519031 -1.09179 -63.0909 255 255 255
-1.76277 -3.4035 -51.4413 255 255 255
-9.69735 -6.8437 33.2665 255 255 255
-9.73557 -8.69063 33.5366 255 255 255
-9.96423 -9.04452 33.3877 255 255 255
27.7239 -13.214 0.68782 255 255 255
-8.17286 7.22714 26.1721 255 255 255
-4.76802 2.98585 -15.2824 255 255 255
-1.06719 -1.53191 -58.7205 255 255 255
-0.97071 -3.78551 -55.7728 255 255 255
-5.11236 -8.33822 -58.2712 255 255 255
-1.18289 -1.45833 -57.8545 255 255 255
-1.19452 -1.4581 -57.865 255 255 255
-12.1172 -14.833 13.5178 255 255 255
-2.38831 -0.388572 -30.4421 255 255 255
27.3728 -11.2382 -0.464489 255 255 255
-14.8607 10.8018 94.488 255 255 255
-9.67487 -4.29311 33.596 255 255 255
-192.592 -239.077 -272.373 255 255 255
-15.417 -9.60536 58.5073 255 255 255
-9.5447 -5.73692 34.066 255 255 255
-8.81731 7.51712 31.6494 255 255 255
-6.09799 2.02014 2.12282 255 255 255
-6.08099 2.01801 2.11766 255 255 255
-8.32179 -0.330243 24.7213 255 255 255
-2.22276 -7.86273 11.4237 255 255 255
-8.35468 7.80873 27.1695 255 255 255
-5.66797 2.0906 -3.30956 255 255 255
-130.13 14.6585 -274.402 255 255 255
-8.76271 -0.764152 29.5114 255 255 255
-5.12505 77.6011 34.7273 255 255 255
-5.12505 77.6011 34.7273 255 255 255
-87.2469 27.9511 135.139 255 255 255
-7.13808 0.886006 24.0051 255 255 255
-5.41057 76.6898 35.984 255 255 255
-5.41057 76.6898 35.984 255 255 255
-15.2898 13.107 98.9953 255 255 255
-10.0674 -13.7452 44.8617 255 255 255
6.97316 -14.6813 53.9787 255 255 255
-16.244 -11.5521 62.8295 255 255 255
-14.3343 -9.36384 91.4367 255 255 255
2.54815 65.0271 33.5284 255 255 255
2.54815 65.0271 33.5284 255 255 255
-2.309 70.0743 35.5928 255 255 255
2.73474 20.3281 55.7895 255 255 255
2.53652 17.4018 55.7207 255 255 255
0.468378 14.2165 55.6701 255 255 255
-11.4548 11.4312 59.7379 255 255 255
-10.2044 5.04907 49.1004 255 255 255
-10.2044 5.04907 49.1004 255 255 255
-18.2357 -2.90716 -0.86991 255 255 255
1.2861 -2.07138 75.0712 255 255 255
3.46512 -6.48082 55.3413 255 255 255
-14.7952 12.2781 94.9103 255 255 255
-15.8459 10.7489 107.996 255 255 255
-15.6627 10.5552 106.803 255 255 255
-7.7667 11.7025 25.866 255 255 255
-7.65949 0.983821 24.677 255 255 255
-14.3756 1.62933 89.0974 255 255 255
-14.8786 -12.1093 46.9273 255 255 255
1.60612 -12.7233 77.1517 255 255 255
5.16832 -13.5668 70.9832 255 255 255
7.17724 -14.3356 61.7848 255 255 255
6.20798 -13.1553 74.6121 255 255 255
-69.1101 -94.7248 -66.7783 255 255 255
-9.79025 15.9102 51.1537 255 255 255
-15.6323 12.185 106.441 255 255 255
-14.9151 11.8934 96.2744 255 255 255
-15.0624 11.3121 96.2991 255 255 255
3.88218 -11.407 50.1722 255 255 255
3.88218 -11.407 50.1722 255 255 255
7.36727 -14.111 59.8582 255 255 255
-45.8215 20.4628 125.778 255 255 255
-15.7922 13.1512 110.82 255 255 255
-11.116 15.7932 55.3733 255 255 255
-15.7468 12.2596 107.038 255 255 255
-15.8184 10.987 108.354 255 255 255
0.923559 4.82069 74.9221 255 255 255
-7.98873 -11.4458 21.0713 255 255 255
-38.383 -9.17933 117.661 255 255 255
3.85061 17.7594 55.7191 255 255 255
-15.9499 0.0119744 56.8123 255 255 255
4.60034 -12.0834 44.7255 255 255 255
2.05739 -12.3191 89.434 255 255 255
-15.4673 0.58773 58.1817 255 255 255
-37.8282 -8.34644 118.49 255 255 255
-37.8282 -8.34644 118.49 255 255 255
5.01092 -13.5328 49.9678 255 255 255
-11.4711 8.43979 58.8766 255 255 255
4.42953 -12.3593 95.8378 255 255 255
-15.4858 -9.67907 52.0232 255 255 255
-7.12059 8.5603 25.4631 255 255 255
4.9585 -11.3305 49.1193 255 255 255
3.50844 -12.8122 77.7954 255 255 255
3.8456 -12.9214 75.4313 255 255 255
1.42434 -12.6616 91.4614 255 255 255
-13.6048 16.8027 75.1933 255 255 255
-10.4781 11.4441 94.9834 255 255 255
-2.17437 5.20733 96.8443 255 255 255
71.1528 68.6758 91.9402 255 255 255
-1.8195 58.7872 102.533 255 255 255
-0.627739 57.6536 100.816 255 255 255
73.0073 63.1896 90.6962 255 255 255
-16.1279 13.2296 117.117 255 255 255
93.2475 8.48418 92.7621 255 255 255
73.6707 67.5188 100.824 255 255 255
73.6707 67.5188 100.824 255 255 255
-8.63506 65.8425 95.8256 255 255 255
-2.90293 44.8891 98.3824 255 255 255
99.697 8.68728 102.378 255 255 255
-9.83101 4.89866 130.91 255 255 255
12.5948 -5.0914 128.714 255 255 255
92.2422 -10.8764 104.363 255 255 255
10.7071 -4.5812 133.629 255 255 255
-7.68066 64.0319 100.17 255 255 255
71.629 66.9335 94.8577 255 255 255
79.3788 60.3144 95.9818 255 255 255
-14.6558 11.5317 103.273 255 255 255
-16.2237 9.90687 118.117 255 255 255
-16.2348 9.9155 118.119 255 255 255
94.9264 -7.19178 104.131 255 255 255
92.7573 -10.3386 102.534 255 255 255
93.4531 -9.8607 104 255 255 255
93.0861 -10.5955 104.354 255 255 255
93.5627 -10.481 105.056 255 255 255
-15.6711 -8.47808 121.167 255 255 255
71.3161 -11.4866 117.625 255 255 255
69.3926 -10.4849 131.159 255 255 255
3.8048 69.6083 99.2761 255 255 255
4.40599 67.8836 99.8609 255 255 255
-14.3 13.5696 108.27 255 255 255
-16.4054 11.3002 120.532 255 255 255
0.267293 13.7837 98.4387 255 255 255
-16.2407 10.5936 121.101 255 255 255
-15.7464 12.7019 92.0065 255 255 255
-16.1629 9.30473 119.637 255 255 255
-14.3812 9.10914 90.8103 255 255 255
-14.4962 -6.43687 116.781 255 255 255
10.7922 -3.63347 129.82 255 255 255
-15.1566 -5.09711 125.219 255 255 255
94.4277 -9.65816 104.909 255 255 255
94.4277 -9.65816 104.909 255 255 255
95.1137 -10.4321 105.121 255 255 255
95.1137 -10.4321 105.121 255 255 255
77.9298 -11.038 103.831 255 255 255
96.849 -11.9139 102.888 255 255 255
96.849 -11.9139 102.888 255 255 255
6.07616 73.3389 100.902 255 255 255
5.7603 73.9108 100.234 255 255 255
2.00006 72.4922 99.3988 255 255 255
3.97602 72.9335 96.3494 255 255 255
-1.88172 56.1925 103.33 255 255 255
72.9771 64.2001 90.3537 255 255 255
-16.3337 13.1251 121.849 255 255 255
-15.9348 11.1696 122.151 255 255 255
-20.6572 -4.54599 102.008 255 255 255
96.9816 -8.56005 103.916 255 255 255
12.0555 -5.06414 132.229 255 255 255
-5.25253 67.3125 101.469 255 255 255
0.316385 63.3344 101.972 255 255 255
1.40552 60.9176 102.725 255 255 255
-16.2873 11.994 116.154 255 255 255
95.3131 -8.50769 104.35 255 255 255
21.4381 -8.00305 126.336 255 255 255
17.9733 -4.30551 140.587 255 255 255
70.52 70.0357 91.5743 255 255 255
70.2955 69.6661 92.0541 255 255 255
-0.109034 56.14 100.858 255 255 255
-16.3394 12.2388 121.244 255 255 255
-14.2559 12.8934 118.508 255 255 255
-15.9387 9.74294 117.192 255 255 255
-16.4462 9.22148 120.834 255 255 255
-16.4358 9.22395 120.832 255 255 255
-9.13174 3.92325 125.117 255 255 255
4.67833 72.6842 99.1014 255 255 255
2.96025 64.0667 103.16 255 255 255
-8.15998 66.6584 99.5788 255 255 255
3.71713 66.7507 98.4701 255 255 255
-15.8241 11.8322 119.704 255 255 255
98.0674 11.9403 101.534 255 255 255
98.0674 11.9403 101.534 255 255 255
14.7274 -5.2266 136.24 255 255 255
-5.06961 65.5292 106.129 255 255 255
-0.963155 68.2911 102.871 255 255 255
91.6739 13.7902 98.8701 255 255 255
91.6739 13.7902 98.8701 255 255 255
92.8416 11.6856 93.4971 255 255 255
93.2497 11.8438 92.9769 255 255 255
92.8416 11.6856 93.4971 255 255 255
-16.5345 7.40293 124.221 255 255 255
70.3946 75.2718 93.1137 255 255 255
91.5629 8.84513 99.5413 255 255 255
94.0672 -6.94473 103.88 255 255 255
89.5434 -8.50225 103.258 255 255 255
0.936898 63.0805 -8.71067 255 255 255
0.936898 63.0805 -8.71067 255 255 255
-8.70687 12.6456 31.9738 255 255 255
-8.92639 11.8054 32.6795 255 255 255
-8.49259 11.4816 31.6051 255 255 255
-8.43532 7.30894 28.9539 255 255 255
-8.62199 6.73679 28.1844 255 255 255
-8.70167 5.80251 26.5299 255 255 255
-5.88035 5.13604 -1.19563 255 255 255
-5.81551 4.99156 -1.52485 255 255 255
-5.72959 4.93076 -2.63161 255 255 255
-5.83767 4.74277 -1.76576 255 255 255
-5.82223 4.74128 -1.76179 255 255 255
-5.8003 4.73687 -1.76375 255 255 255
-5.81808 4.52314 -1.49616 255 255 255
-5.31962 4.16295 -8.4738 255 255 255
-6.08637 3.50864 1.20688 255 255 255
-6.16175 3.52011 1.19248 255 255 255
-5.94035 3.17759 -0.450725 255 255 255
-6.05149 3.11576 1.46031 255 255 255
-5.74118 3.11544 -2.57423 255 255 255
-5.81937 2.92321 -1.76772 255 255 255
-5.82088 2.92075 -1.7627 255 255 255
-5.72268 2.85378 -2.84423 255 255 255
-4.66045 2.51479 -9.50366 255 255 255
-2.46746 1.59906 -44.8131 255 255 255
-6.19281 1.09276 2.92242 255 255 255
-5.67899 1.01306 -3.29537 255 255 255
-7.97127 -0.0606745 25.4456 255 255 255
-0.554381 -0.87332 -62.4771 255 255 255
-8.10433 -0.236199 25.7095 255 255 255
-1.24288 -1.92036 -53.1101 255 255 255
-1.24288 -1.92036 -53.1101 255 255 255
-2.30785 -2.21124 -32.7106 255 255 255
-0.549365 -2.88342 -66.0777 255 255 255
-1.41641 -3.44032 -55.7702 255 255 255
-1.41641 -3.44032 -55.7702 255 255 255
-1.46057 -4.06061 -57.3626 255 255 255
-1.37214 -4.01227 -50.408 255 255 255
-1.91261 -4.81354 -50.7717 255 255 255
-4.94128 -8.97385 -59.6595 255 255 255
-4.94128 -8.97385 -59.6595 255 255 255
-5.6397 -11.8296 -56.531 255 255 255
-3.84533 -12.645 -70.3514 255 255 255
-2.81767 -13.0507 -68.4929 255 255 255
-4.73024 -13.6174 -55.1486 255 255 255
-11.5051 -10.9259 8.902 255 255 255
-3.89738 -15.574 -67.1631 255 255 255
-11.9826 -10.5787 20.1355 255 255 255
-12.272 -10.651 20.5714 255 255 255
-1.01618 -15.1288 -58.3994 255 255 255
-9.48099 -9.48635 31.7817 255 255 255
-6.80614 -10.2016 26.9902 255 255 255
-12.2067 -15.0006 16.8462 255 255 255
-8.38325 -13.1372 26.2689 255 255 255
20.6358 -13.9861 6.26922 255 255 255
25.2408 -14.229 2.19757 255 255 255
21.2868 -15.6027 5.84678 255 255 255
32.2599 -12.123 -3.59281 255 255 255
28.1384 -12.2834 15.4906 255 255 255
1.08544 63.0958 -9.07432 255 255 255
1.18359 61.7544 -8.44912 255 255 255
-8.75895 14.2288 -24.0121 255 255 255
-5.83223 5.09195 -0.374731 255 255 255
-6.26286 3.48389 1.95925 255 255 255
-7.60367 2.27977 24.0159 255 255 255
-7.44658 2.26936 23.9826 255 255 255
-7.35737 1.3007 23.6763 255 255 255
-1.56489 -0.786787 -52.8985 255 255 255
-0.667022 -1.61902 -63.5591 255 255 255
-0.644381 -1.61715 -63.5378 255 255 255
-9.28703 -6.53566 -19.8837 255 255 255
-10.2354 -6.64951 -13.1204 255 255 255
-8.66552 -6.99958 -19.8365 255 255 255
-11.9099 -9.04373 11.243 255 255 255
-1.76557 -14.7347 -71.6234 255 255 255
-4.55163 -15.8424 -61.8807 255 255 255
27.3592 -12.2198 -0.101882 255 255 255
21.0209 -15.1375 6.13007 255 255 255
27.5314 -12.6951 12.8118 255 255 255
5.99779 48.5554 -12.1167 255 255 255
-7.96379 12.6256 25.6977 255 255 255
-7.34727 4.06119 31.0122 255 255 255
-1.74129 -0.183409 -52.7282 255 255 255
-0.00194908 -1.54789 -55.9936 255 255 255
-9.98853 -10.5631 -12.7433 255 255 255
-3.89399 -12.9055 -17.195 255 255 255
-2.28925 -12.9495 -16.9377 255 255 255
-4.50357 -13.8315 -17.0852 255 255 255
-10.882 -15.2852 4.22127 255 255 255
-7.53476 -14.6137 28.3381 255 255 255
28.0424 -11.555 -1.01419 255 255 255
21.0643 -14.2193 5.99765 255 255 255
20.5997 -15.8189 6.33751 255 255 255
1.24822 58.1391 -14.1272 255 255 255
7.05404 48.3056 -14.2031 255 255 255
-9.88626 15.0816 -24.3101 255 255 255
-7.65648 3.8408 25.6275 255 255 255
-0.0160562 -0.600665 -61.4845 255 255 255
-0.519359 -1.62645 -64.5427 255 255 255
-0.55599 -1.62948 -64.578 255 255 255
-1.06966 -2.58609 -60.4573 255 255 255
-1.61772 -6.18269 -38.1436 255 255 255
-4.98238 -7.60523 -66.554 255 255 255
-8.56018 -10.2322 22.6171 255 255 255
9.44686 -9.67206 -4.27016 255 255 255
-7.94803 -16.034 11.2971 255 255 255
22.1698 -11.0073 13.0426 255 255 255
21.0173 -15.2685 5.77082 255 255 255
28.424 -13.6682 -0.754556 255 255 255
28.424 -13.6682 -0.754556 255 255 255
-8.6401 11.9718 -23.6308 255 255 255
-0.388557 -0.930783 -65.6485 255 255 255
22.5916 -10.3308 12.7644 255 255 255
24.2543 -11.5624 2.30684 255 255 255
20.5334 -13.9859 6.47514 255 255 255
-7.58569 7.53413 26.3841 255 255 255
-8.08791 3.18613 23.9039 255 255 255
-5.0672 -7.51702 -56.4958 255 255 255
-2.35249 -14.4635 -59.4162 255 255 255
-7.31511 -14.2237 28.2924 255 255 255
28.2506 -11.4134 15.0876 255 255 255
-7.40966 0.40052 24.7654 255 255 255
-1.7203 -3.12422 -32.4213 255 255 255
-2.34162 -14.0246 -15.9237 255 255 255
-6.56624 -12.8987 28.1158 255 255 255
20.0862 -9.15168 2.74131 255 255 255
20.7578 -15.4029 6.20777 255 255 255
1.66296 61.5726 -10.9465 255 255 255
-8.42464 8.73717 29.5357 255 255 255
-1.88473 4.37584 -32.8643 255 255 255
26.9193 -10.6706 14.5496 255 255 255
28.6926 -13.6842 -0.950323 255 255 255
2.85935 56.8369 -14.3465 255 255 255
-7.03554 2.0031 22.5585 255 255 255
-11.4859 -9.23357 19.4369 255 255 255
-8.09315 -7.15668 28.1643 255 255 255
26.6727 -9.11061 -5.12649 255 255 255
23.8861 -11.9881 3.23564 255 255 255
10.5818 -1.5833 -10.6518 255 255 255
26.6819 -8.65234 -1.53856 255 255 255
27.719 -10.2782 -1.2998 255 255 255
29.238 -13.8538 -2.00199 255 255 255
29.2495 -16.8274 -2.84749 255 255 255
-9.94934 -5.65037 20.4663 255 255 255
17.2388 -12.1568 6.62924 255 255 255
28.4601 -10.6957 -3.52929 255 255 255
5.81415 62.9981 -24.7662 255 255 255
1.03629 62.6699 -11.4994 255 255 255
0.705989 62.6452 -11.2553 255 255 255
6.58482 48.702 -14.7898 255 255 255
-5.78722 4.73682 -1.76661 255 255 255
-5.7968 4.48193 -2.04548 255 255 255
-5.81476 3.69239 2.17968 255 255 255
-7.40406 2.36573 23.6381 255 255 255
-5.74892 1.60986 -2.00722 255 255 255
-6.19315 1.08632 1.54823 255 255 255
-5.73545 1.10511 -2.60793 255 255 255
-5.73545 1.10511 -2.60793 255 255 255
-8.16622 -0.223889 25.7334 255 255 255
10.9387 -3.06118 -14.5692 255 255 255
-2.58178 -3.63535 -40.266 255 255 255
9.21382 -3.35264 -13.1559 255 255 255
-1.82264 -4.58064 -51.0584 255 255 255
-4.94318 -9.34498 -55.528 255 255 255
-3.35056 -13.4534 -71.0188 255 255 255
-2.29607 -15.5036 -60.442 255 255 255
-3.11229 -14.9594 -46.5612 255 255 255
-10.0968 -12.6627 1.54773 255 255 255
-4.04559 -15.9799 -48.4727 255 255 255
-4.91471 -16.8977 -55.2497 255 255 255
-12.1439 -14.6615 17.1559 255 255 255
-7.90761 -14.3614 26.7522 255 255 255
16.4253 -14.1853 10.1242 255 255 255
17.2931 -14.0743 9.44014 255 255 255
20.732 -15.1596 6.41426 255 255 255
27.4596 -15.4213 0.0418129 255 255 255
-8.43645 7.23765 25.4837 255 255 255
-5.57913 6.05064 -6.36872 255 255 255
-4.86412 3.0006 -15.3306 255 255 255
2.77126 -0.735495 -74.3339 255 255 255
-5.31527 -0.941592 -7.41618 255 255 255
-9.692 -7.35076 -16.9698 255 255 255
-8.51957 -11.1728 22.2232 255 255 255
-11.8191 -13.3027 6.0047 255 255 255
-6.28762 -13.5493 -4.37785 255 255 255
26.5543 -11.8288 -18.429 255 255 255
25.5436 -12.2323 -18.4094 255 255 255
26.6665 -11.9746 -18.4783 255 255 255
26.2401 -12.4021 -18.0785 255 255 255
25.0212 -11.4508 1.74059 255 255 255
17.2533 -13.8539 9.27249 255 255 255
-2.34294 -12.7549 -43.5911 255 255 255
-0.629465 -16.2393 -76.2061 255 255 255
-7.99091 -15.0065 26.2131 255 255 255
24.038 -9.69046 1.78115 255 255 255
33.8898 -13.7085 -6.69374 255 255 255
9.14304 36.4159 -14.6903 255 255 255
-3.68259 12.4809 -25.3199 255 255 255
-6.79139 3.33065 25.8269 255 255 255
-1.57871 0.679812 -56.1733 255 255 255
-6.63585 -0.864351 -5.35447 255 255 255
-1.72617 -2.4324 -52.3949 255 255 255
-0.482416 -15.0177 -76.0447 255 255 255
-1.5481 -17.6828 -79.8592 255 255 255
-8.43465 -11.3902 22.5544 255 255 255
-11.5624 -14.3484 12.7867 255 255 255
29.2658 -11.9723 -21.8032 255 255 255
29.3469 -11.9089 -21.2721 255 255 255
16.7641 -12.546 8.69784 255 255 255
34.097 -13.6808 -6.86691 255 255 255
34.2333 -13.7048 -7.1712 255 255 255
34.2333 -13.7048 -7.1712 255 255 255
34.2352 -13.6858 -6.94302 255 255 255
9.08029 -2.57934 -13.0601 255 255 255
-9.53811 -8.60771 -13.8142 255 255 255
-2.34843 -14.019 -43.7985 255 255 255
21.1918 -15.2109 5.76719 255 255 255
34.0252 -13.7122 -6.71398 255 255 255
-7.61094 3.80573 25.6115 255 255 255
-2.13356 -9.44488 -43.8727 255 255 255
-11.9575 -10.3241 21.1044 255 255 255
-11.1468 -14.4521 17.6189 255 255 255
26.7823 -11.6744 -19.074 255 255 255
17.0937 -15.3735 9.55687 255 255 255
20.7097 -14.6375 6.35215 255 255 255
33.854 -14.6086 -6.5648 255 255 255
1.41646 57.8197 -13.1557 255 255 255
1.65213 57.5351 -13.0623 255 255 255
-3.07137 5.91686 -32.011 255 255 255
-11.1242 -11.8334 5.18685 255 255 255
-12.0027 -11.5457 13.2031 255 255 255
23.6059 -9.50873 2.0221 255 255 255
16.4076 -14.8413 10.2574 255 255 255
25.3618 -10.0422 -19.0296 255 255 255
33.8472 -14.0454 -6.31879 255 255 255
34.0252 -14.2705 -7.03997 255 255 255
-11.1366 -9.60174 19.1901 255 255 255
-2.90952 3.56255 -28.9478 255 255 255
28.8711 -11.0223 -2.11537 255 255 255
-6.13502 -7.36681 -5.95464 255 255 255
18.9044 -13.9101 7.94727 255 255 255
19.1964 -11.4959 6.84892 255 255 255
-1.16092 14.3032 -22.2794 255 255 255
-1.16092 14.3032 -22.2794 255 255 255
3.77347 -4.55046 -19.5956 255 255 255
7.28509 52.7711 -74.4143 255 255 255
107.414 7.89418 -57.0046 255 255 255
108.13 6.70764 -60.7373 255 255 255
108.13 6.70764 -60.7373 255 255 255
-9.5422 3.43388 -72.8957 255 255 255
-1.83567 0.691857 -50.632 255 255 255
79.1422 -11.3322 -34.5755 255 255 255
71.8102 -13.9206 -47.2184 255 255 255
5.86962 58.1626 -66.5838 255 255 255
17.8432 57.2056 -75.9863 255 255 255
14.2781 46.7528 -71.7219 255 255 255
106.957 7.01988 -56.19 255 255 255
106.957 7.01988 -56.19 255 255 255
-1.12814 1.09495 -61.9614 255 255 255
-4.88809 -10.9397 -55.4568 255 255 255
25.8135 -9.75881 -19.2007 255 255 255
25.9134 -9.86069 -19.0523 255 255 255
8.14745 57.3005 -68.0878 255 255 255
-4.73739 -11.7998 -54.7185 255 255 255
-1.87583 -17.2192 -69.9695 255 255 255
26.3013 -11.8135 -18.1182 255 255 255
6.96435 61.1306 -70.3353 255 255 255
8.47238 57.6448 -69.4424 255 255 255
16.6883 58.8509 -83.9327 255 255 255
-8.35593 3.46194 -70.5076 255 255 255
34.1651 -13.4851 -5.9636 255 255 255
34.1651 -13.4851 -5.9636 255 255 255
18.4098 51.5858 -72.0162 255 255 255
18.4098 51.5858 -72.0162 255 255 255
109.176 1.17225 -58.1859 255 255 255
72.2587 -11.5511 -30.2898 255 255 255
37.5653 -11.8928 -28.8261 255 255 255
-2.91106 -8.17234 -69.1328 255 255 255
11.3804 62.305 -63.1707 255 255 255
17.2287 52.0366 -70.652 255 255 255
27.3501 -10.1983 -21.5746 255 255 255
26.804 -12.2035 -18.4433 255 255 255
-5.62523 -10.244 -72.6097 255 255 255
-58.413 -20.3763 -171.26 255 255 255
83.7663 58.0794 6.83212 255 255 255
75.7816 -12.5564 -105.338 255 255 255
1.19529 13.9843 56.3484 255 255 255
2.11094 -6.51517 55.7981 255 255 255
1.76469 -7.80216 55.9829 255 255 255
4.19529 15.4808 53.8508 255 255 255
-9.35703 6.41809 42.9328 255 255 255
-12.0915 15.9081 44.2994 255 255 255
10.5948 -13.4554 73.8845 255 255 255
100.703 44.122 -269.696 255 255 255
138.96 -9.19018 -300.529 255 255 255
102.771 53.0422 -78.3589 255 255 255
100.546 -10.6054 -129.769 255 255 255
-10.8298 -13.6191 23.0245 255 255 255
126.45 -16.9344 -262.257 255 255 255
121.881 2.46443 -176.46 255 255 255
21.4848 -3.53212 -245.112 255 255 255
151.052 24.0635 -238.654 255 255 255
-5.72349 4.03967 -3.38696 255 255 255
121.105 -14.5125 -253.271 255 255 255
112.767 -20.7241 -230.301 255 255 255
93.4122 55.1587 -85.2574 255 255 255
2.84287 61.3836 34.081 255 255 255
70.3933 -14.1824 41.1796 255 255 255
-11.4427 -5.51022 45.2908 255 255 255
1.38928 66.8371 33.475 255 255 255
4.77205 65.7645 32.6726 255 255 255
116.71 31.3891 -229.248 255 255 255
-114.886 -67.2323 -266.474 255 255 255
6.7747 -16.4741 -152.544 255 255 255
39.5871 -17.8219 -123.12 255 255 255
-1.89118 -17.5488 -68.6325 255 255 255
16.7474 -1.42169 -73.2385 255 255 255
16.3278 -9.01668 -196.189 255 255 255
140.531 66.9781 -382.524 255 255 255
136.901 8.96589 22.3194 255 255 255
73.1411 -73.2116 -68.2421 255 255 255
21.968 -12.0907 -39.0265 255 255 255
17.0822 63.6968 -101.836 255 255 255
-5.09795 2.27047 -10.9096 255 255 255
-5.09795 2.27047 -10.9096 255 255 255
-9.64106 -9.33277 -13.982 255 255 255
8.03908 41.4334 -14.8619 255 255 255
-9.52367 -8.92293 -15.4378 255 255 255
-3.91625 3.56653 -24.7452 255 255 255
116.034 -13.5982 -181.284 255 255 255
107.605 -13.6259 -175.689 255 255 255
-4.31089 0.834016 -20.2123 255 255 255
-2.34893 0.471194 -50.7711 255 255 255
6.15281 -3.77565 -341.447 255 255 255
10.0097 79.2295 23.8283 255 255 255
89.7553 56.567 16.6416 255 255 255
26.8005 50.6094 -227.007 255 255 255
104.073 11.5679 -24.355 255 255 255
100.397 1.21451 -0.0496272 255 255 255
97.8258 1.45315 11.4956 255 255 255
77.6181 -14.4778 59.1333 255 255 255
102.795 5.21432 -20.4343 255 255 255
86.1332 -1.68354 8.52977 255 255 255
-12.8546 -14.791 -117.017 255 255 255
68.8862 72.5312 92.0618 255 255 255
19.7919 -6.31373 125.126 255 255 255
17.3192 -6.63041 126.711 255 255 255
79.1963 53.2399 94.8993 255 255 255
-16.6659 -15.0766 -54.3154 255 255 255
-4.54806 -12.3628 -133.688 255 255 255
213.329 18.5659 -40.4788 255 255 255
91.4581 2.52454 34.3607 255 255 255
81.4388 -14.1376 42.4126 255 255 255
79.4382 15.4413 47.6179 255 255 255
95.7172 42.33 -83.5038 255 255 255
13.1529 58.4002 -151.39 255 255 255
11.0329 57.3618 -150.143 255 255 255
25.1034 48.8162 -154.202 255 255 255
95.1238 51.0604 -160.552 255 255 255
93.7044 39.042 -154.873 255 255 255
-3.20951 2.85143 -31.3638 255 255 255
6.50757 -0.0991284 -69.8563 255 255 255
110.389 -1.40176 -74.8352 255 255 255
-2.22956 -5.16382 -50.5206 255 255 255
-2.10033 -11.3682 -85.1993 255 255 255
35.7593 -17.2789 -70.7427 255 255 255
34.908 -16.1817 -26.8067 255 255 255
24.1334 44.0725 -145.318 255 255 255
21.8622 43.6166 -151.879 255 255 255
3.72614 -4.56601 -118.927 255 255 255
3.72614 -4.56601 -118.927 255 255 255
98.1161 -7.87095 -103.599 255 255 255
-2.22343 -9.83559 -89.5167 255 255 255
99.4843 -11.0221 -104.747 255 255 255
50.6668 -9.30439 -37.5003 255 255 255
10.9064 -14.4566 -162.482 255 255 255
120.151 -22.2839 -167.365 255 255 255
-2.46858 -18.4534 -87.5939 255 255 255
36.5895 -17.7842 -69.7786 255 255 255
52.0107 -8.66717 -40.3003 255 255 255
92.8476 39.5772 -155.068 255 255 255
2.62366 -1.48749 -136.812 255 255 255
49.7922 -9.1905 -41.6744 255 255 255
-1.48245 -4.99341 -56.2228 255 255 255
-290.424 -326.546 -491.574 255 255 255
-389.853 -417.12 -659.687 255 255 255
101.733 36.0401 -160.734 255 255 255
109.399 4.2155 -63.0398 255 255 255
13.0239 45.4479 -73.7014 255 255 255
-1.98938 -13.3945 -86.8938 255 255 255
-3.53485 -2.60554 -26.3399 255 255 255
-5.49708 3.09061 -7.5303 255 255 255
-14.9022 -12.7378 47.9147 255 255 255
101.185 -2.31837 85.6577 255 255 255
80.2387 -1.72802 104.421 255 255 255
-14.7305 11.4535 102.127 255 255 255
0.033351 1.39409 -54.3406 255 255 255
79.0217 -15.0803 43.913 255 255 255
77.7813 -1.71667 104.315 255 255 255
73.2459 -11.4223 108.082 255 255 255
-44.5031 -84.8729 -94.3549 255 255 255
-37.9126 1.15335 64.2725 255 255 255
-12.0802 -2.54939 10.3617 255 255 255
-11.9402 -13.3898 12.2776 255 255 255
-6.78331 -2.96472 -3.7284 255 255 255
-5.98909 4.86731 -0.907184 255 255 255
-5.71238 2.92004 -3.20567 255 255 255
-4.74715 1.86472 -16.7827 255 255 255
-4.0965 1.10304 -22.7903 255 255 255
-1.74355 -4.09806 -55.1731 255 255 255
-6.74595 -3.59086 -3.88211 255 255 255
-6.73401 -4.07082 -3.92397 255 255 255
-11.8684 -7.35102 12.696 255 255 255
-9.98354 -8.4374 -12.7223 255 255 255
-8.04702 -8.28393 8.86992 255 255 255
-4.82373 -18.0967 -54.6297 255 255 255
-11.6816 -15.1229 9.26261 255 255 255
-11.6816 -15.1229 9.26261 255 255 255
-3.9932 -3.37068 -27.0416 255 255 255
-1.12887 -0.346466 -54.5268 255 255 255
6.16655 53.3083 -14.7862 255 255 255
-11.6156 -5.23935 10.5297 255 255 255
-2.02493 -17.9213 -60.5679 255 255 255
-2.55462 -14.4582 -59.8051 255 255 255
-3.93786 -1.68965 -25.3701 255 255 255
-19.7241 19.032 63.5984 255 255 255
-5.36047 3.09446 -7.91574 255 255 255
-11.5574 -9.71608 6.06893 255 255 255
-5.93435 -1.80026 -4.45041 255 255 255
-44.0656 -82.6363 -68.4718 255 255 255
-13.6838 -9.33679 80.4685 255 255 255
1.43839 3.31858 74.1785 255 255 255
-15.9732 13.4309 110.36 255 255 255
-14.4292 10.4774 95.3146 255 255 255
-8.61599 -12.9975 81.6543 255 255 255
5.59818 -13.1675 86.9945 255 255 255
6.05268 17.3873 55.1085 255 255 255
6.45189 10.894 56.0996 255 255 255
-15.3376 12.0028 102.056 255 255 255
-104.588 30.132 117.05 255 255 255
2.38145 63.8049 35.1048 255 255 255
2.13064 63.4223 36.0628 255 255 255
2.13064 63.4223 36.0628 255 255 255
-15.3967 10.5638 101.83 255 255 255
-0.498387 16.7506 55.5076 255 255 255
5.5856 13.2988 55.9771 255 255 255
-14.791 16.9385 58.0237 255 255 255
-14.6008 12.5212 94.331 255 255 255
-14.6008 12.5212 94.331 255 255 255
-2.33338 72.4464 41.2975 255 255 255
-2.63397 67.7483 35.1533 255 255 255
-0.92213 8.0441 100.488 255 255 255
-14.949 -8.94078 50.8098 255 255 255
-1.15884 3.83245 100.443 255 255 255
-0.105815 72.1161 35.2969 255 255 255
-1.45377 68.6406 35.6283 255 255 255
-1.45377 68.6406 35.6283 255 255 255
-3.82444 89.0551 27.0838 255 255 255
-1.31894 74.3618 29.9637 255 255 255
78.8592 59.1271 -5.42348 255 255 255
-16.3837 14.7858 120.384 255 255 255
-16.1937 10.9205 14.3508 255 255 255
71.5287 -11.0178 117.133 255 255 255
3.57165 90.1649 25.3975 255 255 255
2.78976 63.6875 -29.128 255 255 255
-15.31 14.5844 122.792 255 255 255
-15.6691 13.4478 115.218 255 255 255
80.4684 1.11896 104.04 255 255 255
-16.6487 -7.84243 121.295 255 255 255
-3.56875 72.6791 109.825 255 255 255
0.267377 75.9669 101.773 255 255 255
2.31611 72.9004 104.002 255 255 255
87.7106 62.2902 16.6871 255 255 255
-16.4353 14.3612 121.086 255 255 255
-16.4353 14.3612 121.086 255 255 255
-16.4026 13.9269 120.585 255 255 255
80.7826 -10.5355 65.0773 255 255 255
74.8262 -13.0186 79.2466 255 255 255
-2.74453 72.8051 110.197 255 255 255
2.55955 74.6536 25.3929 255 255 255
87.0775 60.3973 14.9319 255 255 255
-12.9499 0.703014 95.8127 255 255 255
79.2062 -13.7107 68.7212 255 255 255
74.2901 -11.9437 78.9942 255 255 255
11.1695 74.861 29.5406 255 255 255
-16.4423 13.0461 121.887 255 255 255
103.39 -6.47106 84.1274 255 255 255
101.998 -6.32985 85.784 255 255 255
-8.58109 68.3111 104.404 255 255 255
81.0954 70.9683 103.253 255 255 255
82.8838 71.7976 94.9036 255 255 255
-16.5633 13.4272 122.731 255 255 255
102.135 15.6455 101.078 255 255 255
84.0787 4.68318 71.7268 255 255 255
2.98314 75.7577 103.951 255 255 255
-5.4726 69.4901 107.57 255 255 255
-5.4726 69.4901 107.57 255 255 255
1.18208 77.3435 28.683 255 255 255
4.26625 71.8179 105.644 255 255 255
96.4285 8.47434 103.24 255 255 255
67.319 -14.8811 58.3202 255 255 255
93.5698 5.13636 99.5445 255 255 255
1.75476 14.2303 39.863 255 255 255
84.7388 -13.5769 105.34 255 255 255
-5.97601 1.43857 0.1771 255 255 255
-2.10516 1.2564 -35.4203 255 255 255
-4.2161 1.22751 -22.4144 255 255 255
-4.2161 1.22751 -22.4144 255 255 255
-4.96224 1.00554 -14.6731 255 255 255
-1.04036 -0.981304 -56.2826 255 255 255
-6.21829 2.15555 4.6119 255 255 255
-0.484275 -3.77937 -66.0309 255 255 255
-9.86575 -7.10943 -14.4132 255 255 255
-0.845999 -1.23945 -59.4499 255 255 255
-0.439872 -1.68341 -61.7854 255 255 255
-4.00058 -2.22325 -8.97173 255 255 255
-6.53746 -13.8358 -1.75234 255 255 255
6.19201 47.6563 -12.2437 255 255 255
6.99186 61.6376 -67.7894 255 255 255
7.16667 60.3157 -67.5441 255 255 255
-5.78262 4.98115 -2.06563 255 255 255
-6.42345 3.57127 1.85286 255 255 255
-6.0462 3.54451 0.772594 255 255 255
-6.04033 3.13062 1.45855 255 255 255
-5.73688 3.16911 -0.944817 255 255 255
-5.60362 2.99857 -3.79211 255 255 255
-5.80074 2.90992 -1.76961 255 255 255
-5.92052 2.67847 -0.460515 255 255 255
-5.92008 2.68526 -0.460126 255 255 255
-2.61454 2.82736 -34.0393 255 255 255
-5.55787 1.9657 4.18732 255 255 255
-6.06013 1.95114 3.45675 255 255 255
-6.1601 2.00217 2.90477 255 255 255
-5.32799 2.0473 -7.54332 255 255 255
-5.59973 1.78575 -3.71802 255 255 255
-5.59973 1.78575 -3.71802 255 255 255
-5.70408 1.57363 -2.61377 255 255 255
-6.11508 1.3016 3.45349 255 255 255
-5.90236 1.38791 1.35148 255 255 255
-6.15924 1.06195 2.14504 255 255 255
-5.02522 1.02545 -11.8608 255 255 255
-5.00358 1.03511 -11.8704 255 255 255
-5.68912 0.909582 -2.30102 255 255 255
-1.51701 -0.789352 -54.3263 255 255 255
3.75258 -1.20106 -74.0065 255 255 255
-1.80639 -1.40799 -50.6731 255 255 255
9.86089 -2.48803 -14.9746 255 255 255
-1.4029 -3.02912 -55.279 255 255 255
-1.03208 -5.22299 -64.4409 255 255 255
-9.86476 -9.55112 -17.1072 255 255 255
-1.82302 -11.086 -60.7319 255 255 255
-2.2761 -12.5701 -60.4972 255 255 255
-3.08166 -12.3248 -37.7552 255 255 255
-3.02962 -13.3745 -43.6942 255 255 255
-4.73956 -15.06 -55.1349 255 255 255
-3.84904 -15.3328 -46.783 255 255 255
-11.299 -11.5759 18.0941 255 255 255
-5.44794 -12.3618 -3.26686 255 255 255
-4.1757 -15.9661 -47.6029 255 255 255
-4.11459 -15.8935 -47.5473 255 255 255
-2.32866 -17.4494 -69.6148 255 255 255
-11.7462 -14.6837 9.28161 255 255 255
24.397 -12.7713 -32.5152 255 255 255
29.4436 -14.4534 -20.8875 255 255 255
21.3829 -15.6174 5.6878 255 255 255
-309.797 -302.463 -184.192 255 255 255
33.0795 -13.9877 -5.4786 255 255 255
33.9895 -13.7144 -6.32202 255 255 255
7.52278 60.1982 -68.8891 255 255 255
-0.510971 13.4413 -25.7311 255 255 255
-5.84312 1.75287 -0.650386 255 255 255
-5.84312 1.75287 -0.650386 255 255 255
-3.88972 -1.6417 -24.4977 255 255 255
8.71437 -3.03193 -13.2539 255 255 255
-10.0877 -9.51675 -12.8514 255 255 255
-39.6779 -12.056 15.9067 255 255 255
-2.39541 -15.4652 -86.6364 255 255 255
16.5554 -13.8881 9.90353 255 255 255
21.5707 -15.7266 5.56831 255 255 255
28.8636 -13.425 -1.33581 255 255 255
28.8664 -13.7393 -1.20447 255 255 255
27.3734 -15.375 0.181173 255 255 255
33.3447 -13.7493 -5.65703 255 255 255
7.56603 62.6722 -68.3326 255 255 255
7.31705 61.6021 -69.6655 255 255 255
7.4123 61.4237 -69.492 255 255 255
8.16943 58.3588 -68.1508 255 255 255
-1.9814 14.3569 -23.4349 255 255 255
-5.96894 3.35846 2.0119 255 255 255
-5.02485 -0.324138 -4.98144 255 255 255
-5.03185 -0.323757 -4.98226 255 255 255
5.9378 -1.76028 -71.2059 255 255 255
9.18518 -1.77043 -13.2023 255 255 255
-2.47932 -2.59076 -27.079 255 255 255
-9.07691 -2.15308 22.1585 255 255 255
0.584452 -5.42323 -74.1151 255 255 255
-1.38095 -6.16788 -37.9445 255 255 255
-2.23805 -8.00657 -43.5986 255 255 255
-3.11827 -10.3328 -60.8607 255 255 255
-3.69003 -16.4609 -47.7526 255 255 255
22.499 -10.9744 -18.7166 255 255 255
33.0642 -7.73711 -0.213272 255 255 255
-2.54822 -16.0215 -86.0014 255 255 255
-2.46238 -16.0058 -85.8678 255 255 255
-9.64727 -12.0163 1.9076 255 255 255
28.0247 -9.32021 -2.21149 255 255 255
31.1806 -17.1423 -17.1523 255 255 255
27.6508 -15.4381 -0.0451591 255 255 255
27.6508 -15.4381 -0.0451591 255 255 255
8.10116 3.74672 -13.7847 255 255 255
-1.01961 -3.53631 -60.1243 255 255 255
-1.01961 -3.53631 -60.1243 255 255 255
-4.585 -14.8483 -48.2616 255 255 255
-5.46963 -14.9743 -50.6805 255 255 255
29.728 -14.3669 -21.1826 255 255 255
29.728 -14.3669 -21.1826 255 255 255
6.45791 56.74 -68.5475 255 255 255
5.71089 57.9955 -71.8496 255 255 255
-1.25696 -12.1598 -61.8028 255 255 255
-2.87143 -12.4256 -38.5635 255 255 255
28.4663 -12.5496 -20.319 255 255 255
-11.941 -7.20473 19.1824 255 255 255
-12.1148 -9.63241 13.1987 255 255 255
-5.90875 -13.3879 -53.0521 255 255 255
24.5785 -12.288 2.57725 255 255 255
-1.58612 1.39345 -56.0835 255 255 255
24.5625 -9.54054 0.978731 255 255 255
-0.527805 13.7466 -24.8733 255 255 255
-14.6336 -3.56346 2.98292 255 255 255
28.5266 -11.7779 -1.37895 255 255 255
-10.2659 -0.818763 -94.0372 255 255 255
-9.33539 17.4486 -54.1505 255 255 255
12.9771 62.1404 -63.6753 255 255 255
19.6554 55.982 -73.3481 255 255 255
18.5781 53.2975 -71.8356 255 255 255
7.49318 50.964 -74.2622 255 255 255
96.3835 56.1328 -79.5769 255 255 255
15.1328 46.9898 -71.9238 255 255 255
109.633 11.227 -62.3894 255 255 255
110.186 9.39728 -64.782 255 255 255
110.146 7.93387 -67.6895 255 255 255
110.782 8.58676 -74.36 255 255 255
110.886 7.9471 -69.0413 255 255 255
109.254 5.02803 -66.1089 255 255 255
-1.67287 2.37156 -51.7649 255 255 255
110.017 3.71357 -63.2859 255 255 255
-8.77307 3.35116 -73.3674 255 255 255
-0.922765 0.101685 -61.2134 255 255 255
109.782 0.624096 -63.5884 255 255 255
-2.70169 -0.537428 -53.4542 255 255 255
-1.47971 -0.737182 -53.5172 255 255 255
-1.3538 -0.628658 -58.0994 255 255 255
110.627 -0.0110351 -69.7194 255 255 255
-37.97 -0.507554 -104.919 255 255 255
-1.22171 -1.93847 -54.9582 255 255 255
-1.3338 -1.81517 -58.299 255 255 255
-1.3338 -1.81517 -58.299 255 255 255
110.594 -1.83875 -74.2478 255 255 255
41.4922 -3.15377 -1.1804 255 255 255
-1.10254 -3.2748 -56.0236 255 255 255
-1.8488 -3.64862 -51.9749 255 255 255
-1.44762 -4.63422 -52.1945 255 255 255
-1.4639 -9.79671 -81.6984 255 255 255
-5.00377 -8.81721 -56.2845 255 255 255
-1.94088 -16.5024 -70.4372 255 255 255
33.2034 -14.1362 -55.9602 255 255 255
-0.420297 -17.3006 -72.6342 255 255 255
1.98746 -17.3186 -64.9643 255 255 255
33.459 -12.0006 -34.4076 255 255 255
33.459 -12.0006 -34.4076 255 255 255
-3.62898 -15.1208 -45.7894 255 255 255
-3.67517 -15.529 -46.206 255 255 255
-3.44825 -15.4611 -45.9807 255 255 255
73.3989 -15.685 -44.6665 255 255 255
70.6742 -13.0313 -30.8983 255 255 255
68.5917 -14.6574 -35.5365 255 255 255
70.1589 -14.0799 -32.4481 255 255 255
71.7318 -13.9389 -28.4533 255 255 255
71.4242 -14.4747 -28.729 255 255 255
71.4242 -14.4747 -28.729 255 255 255
29.7727 -14.7139 -21.4524 255 255 255
29.7727 -14.7139 -21.4524 255 255 255
7.32925 61.3629 -66.1114 255 255 255
7.75294 59.908 -65.4289 255 255 255
17.8906 60.7671 -67.0459 255 255 255
16.5981 60.0994 -67.1676 255 255 255
8.41834 58.4185 -66.7729 255 255 255
18.716 55.4244 -72.7935 255 255 255
95.6131 57.741 -73.9276 255 255 255
101.58 50.2223 -82.7554 255 255 255
97.6276 43.1337 -79.2454 255 255 255
110.017 7.91025 -69.0417 255 255 255
110.367 7.88075 -71.8196 255 255 255
110.026 3.82809 -69.0278 255 255 255
110.026 3.82809 -69.0278 255 255 255
-1.52658 -8.02772 -83.4198 255 255 255
-4.67174 -11.2456 -54.6297 255 255 255
-4.63323 -12.589 -55.1211 255 255 255
35.0067 -15.7486 -70.7201 255 255 255
77.897 -16.9182 -76.6773 255 255 255
71.0212 -14.1614 -47.8441 255 255 255
-4.47046 -16.2862 -54.3072 255 255 255
71.8606 -15.0747 -46.8823 255 255 255
36.1191 -12.4135 -32.6363 255 255 255
71.8822 -14.3046 -28.8746 255 255 255
71.3672 -18.5484 -38.6418 255 255 255
26.5444 -11.9765 -18.2115 255 255 255
13.0065 63.2987 -64.948 255 255 255
99.2823 61.0293 -75.8371 255 255 255
95.6645 57.2264 -78.6321 255 255 255
9.84679 50.8621 -73.9499 255 255 255
97.8917 55.1688 -81.5535 255 255 255
12.0713 42.3447 -72.3538 255 255 255
110.754 -0.588346 -70.2041 255 255 255
-2.35421 -17.0711 -87.4745 255 255 255
76.6558 -16.2784 -76.2905 255 255 255
76.6558 -16.2784 -76.2905 255 255 255
70.6156 -10.7705 -32.6795 255 255 255
72.7488 -15.3917 -44.5179 255 255 255
29.019 -14.2319 -12.4485 255 255 255
100.346 51.127 -80.686 255 255 255
12.0783 -1.44903 -74.2939 255 255 255
12.0783 -1.44903 -74.2939 255 255 255
111.128 -13.5982 -64.7353 255 255 255
33.807 -11.2032 -42.5372 255 255 255
75.2328 -12.2425 -45.805 255 255 255
24.5905 -12.363 -31.774 255 255 255
14.7674 61.9174 -63.9922 255 255 255
16.8512 59.2762 -66.9307 255 255 255
87.6467 62.842 -82.0381 255 255 255
99.7545 52.67 -74.6675 255 255 255
100.313 53.447 -75.5874 255 255 255
12.4535 47.1204 -70.4722 255 255 255
101.719 48.5709 -82.4385 255 255 255
112.913 -1.65518 -71.7637 255 255 255
28.7467 -14.1575 -12.5238 255 255 255
17.5104 61.3433 -66.5815 255 255 255
5.53221 57.2511 -68.8038 255 255 255
101.706 56.4368 -75.3739 255 255 255
109.922 -0.720088 -65.7057 255 255 255
111.997 -15.8708 -76.0493 255 255 255
34.1026 -17.8143 -69.1398 255 255 255
73.8684 -10.6156 -30.0801 255 255 255
14.5981 61.6054 -62.9872 255 255 255
8.38054 60.6516 -64.1854 255 255 255
10.308 52.4468 -69.8107 255 255 255
10.308 52.4468 -69.8107 255 255 255
95.3922 56.0082 -80.9226 255 255 255
6.73475 57.7801 -66.5832 255 255 255
17.4956 51.7897 -70.2694 255 255 255
8.07999 53.4585 -75.4321 255 255 255
-2.17587 -12.3884 -73.1474 255 255 255
32.818 -12.2375 -41.14 255 255 255
7.39169 2.33369 -81.4653 255 255 255
72.5517 -13.0313 -46.2184 255 255 255
89.1299 59.3203 -80.5479 255 255 255
73.1294 -16.3769 -75.4456 255 255 255
72.7597 -16.2491 -74.5013 255 255 255
11.3006 -2.29383 -77.2444 255 255 255
68.3367 -15.1502 -36.1514 255 255 255
23.845 6.94951 -75.6642 255 255 255
5.35163 71.3493 101.07 255 255 255
2.93866 66.7241 102.404 255 255 255
-15.2046 -6.24195 129.142 255 255 255
6.85042 73.0324 101.18 255 255 255
6.85042 73.0324 101.18 255 255 255
-5.24354 63.6102 106.77 255 255 255
6.78506 67.6714 99.43 255 255 255
67.9091 70.506 93.7178 255 255 255
80.908 63.3676 99.1356 255 255 255
-2.5183 55.4224 100.429 255 255 255
3.11434 70.6898 39.1344 255 255 255
-15.7765 15.7478 114.772 255 255 255
-15.8112 14.0361 121.17 255 255 255
-3.73939 14.8582 93.389 255 255 255
-15.889 5.24811 133.296 255 255 255
95.2497 -6.38057 104.208 255 255 255
-17.7916 -4.81627 122.302 255 255 255
-13.6593 -6.13176 116.286 255 255 255
-13.8518 -6.69366 116.066 255 255 255
18.1157 -5.29716 122.187 255 255 255
16.3054 -6.407 116.726 255 255 255
15.9693 -5.31607 126.316 255 255 255
19.2623 -9.5597 124.394 255 255 255
43.5603 -10.2782 131.548 255 255 255
4.5115 69.5782 106.654 255 255 255
79.562 66.5509 98.1035 255 255 255
-2.58119 59.6867 103.326 255 255 255
0.476266 59.3976 102.029 255 255 255
-0.227333 74.0587 34.3339 255 255 255
-15.8933 11.3359 120.927 255 255 255
-34.7208 11.3842 111.165 255 255 255
-36.8864 10.2244 108.704 255 255 255
-36.8864 10.2244 108.704 255 255 255
16.5895 -5.28166 137.575 255 255 255
16.3656 -5.49998 136.729 255 255 255
16.0561 -5.99349 136.39 255 255 255
4.79012 71.6567 98.1438 255 255 255
70.6117 66.4266 91.6047 255 255 255
-16.1338 11.3794 120.5 255 255 255
8.41267 -4.07026 127.233 255 255 255
92.9022 -9.36885 101.478 255 255 255
17.024 -5.29523 136.911 255 255 255
44.3739 -10.1093 136.772 255 255 255
2.57724 71.4187 98.8881 255 255 255
4.06631 69.2399 99.8865 255 255 255
71.938 64.5465 93.2074 255 255 255
-0.977796 54.7285 102.509 255 255 255
-1.03243 54.7097 102.453 255 255 255
-16.1973 13.823 122.794 255 255 255
-16.1585 13.2674 117.824 255 255 255
-17.4633 5.59137 130.233 255 255 255
100.072 -4.84278 82.8924 255 255 255
-14.9878 -5.37748 128.634 255 255 255
-14.9878 -5.37748 128.634 255 255 255
17.1384 -4.00664 152.322 255 255 255
5.0228 64.7038 101.826 255 255 255
74.4708 63.4803 91.0009 255 255 255
-16.3382 15.406 120.75 255 255 255
-16.4089 -3.29782 117.658 255 255 255
1.88548 66.9583 102.952 255 255 255
2.50323 62.9077 98.5961 255 255 255
2.50323 62.9077 98.5961 255 255 255
82.1585 63.2059 98.8546 255 255 255
79.383 57.9423 98.2965 255 255 255
-13.9199 5.65047 126.88 255 255 255
70.8798 70.8686 93.7104 255 255 255
10.5841 -4.92239 125.771 255 255 255
80.6338 3.96072 85.6927 255 255 255
-16.3281 14.7123 123.705 255 255 255
-14.5631 13.4535 115.618 255 255 255
80.0444 2.91691 93.4624 255 255 255
3.03188 25.8421 75.122 255 255 255
96.8693 46.132 -84.5779 255 255 255
97.5751 43.0686 -83.3681 255 255 255
20.074 58.946 -154.099 255 255 255
108.344 8.02429 -62.7739 255 255 255
-2.80871 1.61569 -41.0713 255 255 255
-2.00754 -1.82862 -54.836 255 255 255
-3.15221 -10.8566 -85.6444 255 255 255
74.6961 -11.8337 -46.5103 255 255 255
-3.68263 -15.9641 -67.4671 255 255 255
33.1131 -14.3243 -58.583 255 255 255
108.74 -17.3071 -67.3143 255 255 255
53.1268 -19.8448 -57.2035 255 255 255
10.2349 61.788 -67.7856 255 255 255
16.6943 50.0988 -151.649 255 255 255
-9.48333 3.525 -72.4568 255 255 255
-0.206728 0.847551 -94.4781 255 255 255
-1.30872 -3.79871 -56.301 255 255 255
-5.0498 -8.26072 -57.0279 255 255 255
29.5216 -14.7118 -21.3432 255 255 255
71.233 -12.779 -30.2525 255 255 255
110.289 8.0693 -75.0813 255 255 255
0.35835 -18.0444 -74.7342 255 255 255
0.582389 -16.5682 -74.8088 255 255 255
26.3641 -12.5602 -17.657 255 255 255
-3.65054 -8.74228 -65.6829 255 255 255
3.7121 20.7942 55.5578 255 255 255
3.7121 20.7942 55.5578 255 255 255
6.37346 16.2112 55.7773 255 255 255
5.4034 15.5187 55.6729 255 255 255
1.15669 15.0181 55.3615 255 255 255
-16.1344 12.6712 109.889 255 255 255
-15.5832 12.5972 105.882 255 255 255
4.00523 10.9138 56.0848 255 255 255
-15.2367 11.059 103.238 255 255 255
-14.6218 8.8225 94.219 255 255 255
-13.6239 1.65213 79.8077 255 255 255
-13.6239 1.65213 79.8077 255 255 255
-20.1651 -0.0862546 107.903 255 255 255
-20.2179 -4.27753 104.133 255 255 255
-16.4641 -9.58082 72.5801 255 255 255
10.6007 -13.6048 73.3999 255 255 255
2.56775 20.8275 55.5898 255 255 255
-16.8227 14.9108 120.093 255 255 255
-16.1765 13.6931 116.352 255 255 255
-16.1765 13.6931 116.352 255 255 255
-15.4537 13.6728 105.048 255 255 255
-15.4861 13.3979 105.408 255 255 255
-15.2963 13.0049 103.4 255 255 255
-16.2143 12.1669 115.675 255 255 255
-15.297 12.4368 104.272 255 255 255
-15.3612 10.9165 104.484 255 255 255
-15.3275 10.7761 103.872 255 255 255
-7.96796 12.5709 26.7394 255 255 255
-15.8874 10.4342 107.172 255 255 255
-15.3239 10.2694 103.23 255 255 255
-15.3239 10.2694 103.23 255 255 255
6.02808 8.33716 56.5229 255 255 255
6.02808 8.33716 56.5229 255 255 255
-21.7277 -5.83122 116.604 255 255 255
-15.3066 -10.1119 72.8399 255 255 255
3.16778 -13.1037 71.4477 255 255 255
-4.42456 75.6181 35.1493 255 255 255
1.54098 17.0611 55.2561 255 255 255
2.33716 13.0897 55.6307 255 255 255
-15.8972 13.4949 111.28 255 255 255
-10.833 16.1956 47.6068 255 255 255
-15.8381 13.2666 112.547 255 255 255
-16.7375 12.8938 117.498 255 255 255
-16.4222 12.6177 114.74 255 255 255
-15.6306 12.647 105.477 255 255 255
-15.5059 12.1855 105.074 255 255 255
-15.5845 10.8945 107.032 255 255 255
2.86457 -12.3729 83.3748 255 255 255
-10.8864 16.3814 56.0979 255 255 255
-15.6195 13.0113 106.914 255 255 255
-14.0208 -9.76303 82.1795 255 255 255
3.5569 -9.00109 56.0064 255 255 255
2.45366 -12.1345 87.8201 255 255 255
6.91252 -14.7725 58.6048 255 255 255
-15.4265 10.5529 105.144 255 255 255
-1.03812 4.05054 99.7027 255 255 255
-20.544 -0.202979 111.39 255 255 255
-2.05047 13.9628 55.2947 255 255 255
-15.6013 11.7165 114.133 255 255 255
-16.8531 -3.28033 118.434 255 255 255
-1.01239 -8.30614 89.5376 255 255 255
7.63504 -14.4366 57.7414 255 255 255
6.49237 -13.1093 76.0376 255 255 255
-1.49975 14.3443 56.741 255 255 255
0.725564 -11.9535 76.2931 255 255 255
0.725564 -11.9535 76.2931 255 255 255
-2.27471 5.41565 102.186 255 255 255
-0.339927 9.3401 99.1737 255 255 255
-5.83572 5.25142 -0.519859 255 255 255
-5.78391 4.73732 -1.76901 255 255 255
-5.87933 3.21345 -0.919242 255 255 255
-6.03451 2.44699 1.76152 255 255 255
-5.08303 2.45922 -10.0623 255 255 255
-2.55642 2.12246 -32.5023 255 255 255
-5.98911 1.31142 0.43914 255 255 255
-6.03137 0.962067 0.856229 255 255 255
-5.6416 -2.55375 -4.76653 255 255 255
-0.771225 -5.25369 -66.4399 255 255 255
-1.64685 -4.96369 -32.6123 255 255 255
-11.2517 -4.14776 6.34967 255 255 255
-23.1621 -10.3276 11.9006 255 255 255
-5.04445 -16.4859 -54.838 255 255 255
26.3156 -11.2525 2.01319 255 255 255
26.6358 -14.692 -18.0604 255 255 255
27.7775 -14.604 -19.1065 255 255 255
-5.27927 1.71468 -7.85556 255 255 255
-8.39092 -8.98768 -34.8232 255 255 255
-8.39092 -8.98768 -34.8232 255 255 255
-10.0428 -8.78391 -12.2859 255 255 255
-10.3583 -11.7849 0.528719 255 255 255
