ply
format ascii 1.0
element vertex 1203
property float x
property float y
property float z
property uchar red
property uchar green
property uchar blue
end_header
-0.813645 -0.255664 -1.29886 255 255 255
-0.99977 0.0976895 -1.91716 255 255 255
-1.22727 -0.212365 -2.05008 255 255 255
-1.12914 0.535757 -1.68178 255 255 255
-0.735489 -0.217829 -2.20558 255 255 255
-0.794989 0.029555 -1.67149 255 255 255
-1.42254 3.31237 -6.87444 255 255 255
-0.737978 -0.272077 -1.97757 255 255 255
-0.67775 0.305681 -1.82941 255 255 255
-1.00108 0.360314 -2.48972 255 255 255
-0.74207 -0.0920481 -1.85966 255 255 255
-1.09292 -0.218506 -2.82097 255 255 255
-0.78584 0.25568 -1.84474 255 255 255
-0.78584 0.25568 -1.84474 255 255 255
-0.669467 -0.245504 -1.47008 255 255 255
-0.611769 -0.258505 -1.45339 255 255 255
-0.442792 -0.253 -1.45312 255 255 255
-0.606593 -0.253934 -1.43712 255 255 255
-0.577658 -0.255404 -1.43093 255 255 255
-0.482976 -0.249917 -1.42761 255 255 255
-0.483291 -0.249152 -1.42792 255 255 255
-1.09803 0.308086 -1.76584 255 255 255
-1.05235 0.197454 -2.14257 255 255 255
-0.538116 -0.254697 -1.44864 255 255 255
-0.566804 -0.254106 -1.41826 255 255 255
-0.876368 0.407236 -1.89507 255 255 255
-1.0196 0.194914 -2.00055 255 255 255
-0.557697 -0.253529 -1.40705 255 255 255
-0.601599 -0.255789 -1.43722 255 255 255
-1.07413 0.0490321 -2.43067 255 255 255
-18.0801 -17.2755 -27.6274 255 255 255
1.51904 0.96102 -9.1791 255 255 255
-0.25504 0.952487 -8.90974 255 255 255
1.10407 -0.549079 -7.04305 255 255 255
-1.05498 0.192379 -1.98787 255 255 255
-0.745778 -0.0974646 -1.8125 255 255 255
-1.14304 -0.161178 -2.02241 255 255 255
-1.10259 0.332223 -1.76349 255 255 255
-1.08607 0.227843 -1.87031 255 255 255
-0.208603 1.04435 -8.77079 255 255 255
1.96193 -0.585234 -8.75744 255 255 255
-1.08829 0.312837 -1.78765 255 255 255
-1.10343 0.301901 -1.64497 255 255 255
0.441519 -0.780541 -1.88096 255 255 255
1.13665 0.479871 -1.7637 255 255 255
2.02786 0.254761 -6.90007 255 255 255
1.9406 -0.0405291 -7.05778 255 255 255
-0.944763 0.00763098 -3.01376 255 255 255
1.13521 -0.40608 -6.77904 255 255 255
1.1539 -0.396762 -6.53825 255 255 255
1.42414 1.01456 -5.03159 255 255 255
1.8627 -0.274452 -8.06354 255 255 255
-0.953655 0.0960645 -3.21179 255 255 255
-0.951441 0.082833 -3.22789 255 255 255
-0.860976 -0.362057 -4.76307 255 255 255
-0.959092 0.115785 -3.1551 255 255 255
-0.937326 0.112205 -3.41387 255 255 255
1.92061 -0.201168 -7.19426 255 255 255
-0.532659 0.321803 -3.73562 255 255 255
1.26991 0.24429 -1.75279 255 255 255
-2.51659 -2.32633 -2.80693 255 255 255
-0.346508 1.57773 -4.80289 255 255 255
1.70453 1.0634 -6.82068 255 255 255
1.87925 1.06145 -8.20981 255 255 255
1.70902 0.264545 -4.62524 255 255 255
-0.933361 0.108152 -3.43937 255 255 255
-0.934707 0.108548 -3.44003 255 255 255
1.48711 -0.165 -5.61536 255 255 255
-0.882203 -0.114425 -4.03429 255 255 255
0.912464 -0.366971 -5.15781 255 255 255
0.821514 -0.277496 -3.92083 255 255 255
-0.529829 1.24257 -6.74706 255 255 255
1.68353 0.939343 -8.1313 255 255 255
1.88631 -0.130375 -7.06431 255 255 255
1.54202 -0.239603 -6.6726 255 255 255
1.69725 -0.244255 -6.68076 255 255 255
1.70547 0.00524981 -4.60147 255 255 255
1.59299 1.20476 -8.54289 255 255 255
0.934209 -0.432117 -5.04613 255 255 255
-1.17493 0.358368 -0.938368 255 255 255
-0.486164 1.59717 -3.50615 255 255 255
-0.565917 -0.257841 -3.05901 255 255 255
0.891941 -2.07856 -4.04928 255 255 255
17.0086 -23.811 -36.3462 255 255 255
1.65761 0.178425 -3.6607 255 255 255
-0.8932 0.171928 -0.817319 255 255 255
-1.19041 0.293963 -0.862977 255 255 255
-0.665453 0.0127933 -6.40394 255 255 255
-0.764726 0.00297235 -5.28814 255 255 255
1.73033 -0.0288804 -4.60233 255 255 255
-0.0132095 -0.00383833 -3.15294 255 255 255
-0.924476 -0.125334 -4.698 255 255 255
-0.863067 -0.42605 -4.54676 255 255 255
1.35721 1.05819 -5.07448 255 255 255
1.78072 0.789875 -7.80125 255 255 255
1.93779 -0.093791 -4.64111 255 255 255
1.34863 1.18442 -5.13077 255 255 255
-0.426975 1.22905 -6.76752 255 255 255
1.35474 1.19352 -6.85684 255 255 255
-0.9092 0.108692 -3.72158 255 255 255
-0.91678 0.0916909 -3.65969 255 255 255
-0.690738 -0.0709639 -6.01496 255 255 255
-0.852679 -0.305817 -5.17385 255 255 255
-0.847973 -0.282244 -4.8333 255 255 255
0.921757 -0.400712 -5.46242 255 255 255
0.151389 -0.372686 -5.13584 255 255 255
0.991769 -0.486047 -5.63921 255 255 255
0.885623 -0.424719 -5.00898 255 255 255
-0.204739 1.23729 -6.85783 255 255 255
-3.47164 0.308434 -10.1895 255 255 255
1.42846 0.674823 -5.064 255 255 255
-0.649895 1.09797 -3.58651 255 255 255
-0.191198 1.22705 -6.78938 255 255 255
-0.246269 1.11589 -6.71668 255 255 255
-0.237582 1.20976 -7.55558 255 255 255
-0.634288 1.99841 -2.29648 255 255 255
1.24947 1.57606 -2.84063 255 255 255
1.24947 1.57606 -2.84063 255 255 255
-1.03007 0.298495 -2.25189 255 255 255
-1.21294 0.396047 -0.636113 255 255 255
-1.07422 0.323461 -2.33657 255 255 255
-1.06833 0.252232 -1.97724 255 255 255
1.65282 0.119162 -3.25349 255 255 255
-0.80693 1.54783 -3.43481 255 255 255
-1.06931 0.282153 -2.28821 255 255 255
-0.966723 -0.228934 -2.60705 255 255 255
1.12658 -0.00393837 -0.708267 255 255 255
0.992376 -0.236296 -0.729638 255 255 255
0.174551 -0.159266 0.183638 255 255 255
0.174551 -0.159266 0.183638 255 255 255
1.16868 1.65855 -3.0051 255 255 255
-0.705717 1.64268 -3.34087 255 255 255
-1.29247 0.365603 -0.608195 255 255 255
-0.697621 0.421098 -2.1488 255 255 255
-1.1846 0.298487 -0.745812 255 255 255
-1.01899 0.339814 -2.27384 255 255 255
1.07916 -0.240868 -1.15671 255 255 255
-0.875746 1.8669 -2.34219 255 255 255
1.49049 -0.203787 -0.797641 255 255 255
-0.917913 1.77426 -2.36834 255 255 255
1.46343 0.457609 -0.819966 255 255 255
1.21001 1.62071 -0.999856 255 255 255
1.50403 0.314849 -1.02747 255 255 255
1.07705 0.164679 -1.27131 255 255 255
1.3651 0.314867 -2.83692 255 255 255
-1.14549 0.166599 -1.00456 255 255 255
1.14302 -0.239928 -1.40168 255 255 255
1.15465 0.377029 -1.77033 255 255 255
-0.717629 0.374966 -1.954 255 255 255
-0.691903 1.54734 -4.76087 255 255 255
-0.366331 1.48227 -4.8893 255 255 255
-0.701005 1.3541 -4.8262 255 255 255
1.51789 1.42881 -4.87246 255 255 255
1.26174 1.46992 -5.10704 255 255 255
1.25763 1.46603 -5.10115 255 255 255
-0.368491 1.19978 -4.77591 255 255 255
1.26923 1.24326 -5.12046 255 255 255
1.45025 1.08239 -5.00875 255 255 255
1.40802 1.08011 -5.08208 255 255 255
1.71592 0.228023 -4.4424 255 255 255
1.71316 0.230029 -4.48455 255 255 255
1.70389 0.235067 -4.52586 255 255 255
1.70959 0.229756 -4.54843 255 255 255
1.71067 0.229979 -4.54926 255 255 255
1.72364 0.221841 -4.48285 255 255 255
1.72063 0.239128 -4.70877 255 255 255
1.72063 0.239128 -4.70877 255 255 255
1.72548 0.2275 -4.66483 255 255 255
1.72809 0.228809 -4.66751 255 255 255
1.71869 0.228375 -4.69044 255 255 255
1.73977 0.123683 -4.74487 255 255 255
1.71111 0.0746237 -4.54929 255 255 255
1.70284 0.0740325 -4.5201 255 255 255
1.72236 0.0574395 -4.64355 255 255 255
-0.752934 -0.0434884 -6.09396 255 255 255
1.74613 -0.0303737 -4.87574 255 255 255
-0.846296 -0.0300109 -4.49154 255 255 255
-0.725199 -0.0612719 -4.89622 255 255 255
-0.732954 -0.0638473 -4.9122 255 255 255
-0.81758 -0.0609041 -4.66955 255 255 255
-0.802217 -0.0795678 -4.89314 255 255 255
1.71834 -0.0768885 -4.60821 255 255 255
-0.928929 -0.257437 -4.43727 255 255 255
-0.858907 -0.363824 -5.09652 255 255 255
-0.887965 -0.311373 -4.69198 255 255 255
0.887857 -0.195483 -3.85156 255 255 255
-0.921231 -0.322157 -4.43637 255 255 255
0.068201 -0.243802 -3.86387 255 255 255
0.440065 -0.444085 -4.49039 255 255 255
0.764659 -0.232257 -3.52982 255 255 255
0.77891 -0.239923 -3.52326 255 255 255
-0.129446 -0.302148 -3.6643 255 255 255
0.802143 -0.292779 -3.54373 255 255 255
-0.0174565 -0.269407 -3.31284 255 255 255
-0.0254766 -0.273055 -3.31383 255 255 255
-0.0815337 -0.299649 -3.31365 255 255 255
-0.104136 -0.271077 -3.25271 255 255 255
-0.561879 1.60319 -4.73184 255 255 255
-0.681919 1.52247 -4.80876 255 255 255
-0.320247 1.47354 -4.93934 255 255 255
1.37228 1.51257 -4.94189 255 255 255
1.48313 1.42387 -5.05312 255 255 255
1.26503 1.38457 -5.20036 255 255 255
-0.540007 1.1124 -4.87195 255 255 255
1.7027 0.233623 -4.56126 255 255 255
1.70175 0.233893 -4.5604 255 255 255
-0.881335 0.0945954 -3.91303 255 255 255
-0.905172 0.0886593 -4.42104 255 255 255
-0.793591 0.0686921 -5.12127 255 255 255
1.73285 0.00930325 -4.81766 255 255 255
-0.815381 -0.0861289 -4.95986 255 255 255
-0.820275 -0.0954577 -4.89112 255 255 255
-0.929055 -0.113619 -4.45608 255 255 255
-0.871185 -0.340457 -5.26288 255 255 255
-0.0595402 -0.306729 -4.74307 255 255 255
0.854735 -0.268923 -4.34566 255 255 255
-0.874366 -0.304458 -4.1781 255 255 255
-0.863662 -0.319551 -4.16391 255 255 255
-0.895974 -0.341614 -4.21812 255 255 255
0.850388 -0.277998 -3.88235 255 255 255
-0.201457 -0.219627 -3.58201 255 255 255
-0.542771 1.45104 -4.87755 255 255 255
1.40522 1.49063 -4.8969 255 255 255
1.34263 1.39344 -5.07181 255 255 255
-0.850198 0.0372492 -4.64937 255 255 255
-0.880984 -0.00738314 -4.48189 255 255 255
-0.52094 -0.119992 -5.71558 255 255 255
1.38781 -0.131976 -5.55755 255 255 255
-0.863573 -0.380071 -5.18861 255 255 255
-0.0223262 -0.242022 -4.09079 255 255 255
-0.909639 -0.338172 -4.27999 255 255 255
0.891993 -0.244257 -3.64156 255 255 255
-0.0287488 -0.29324 -3.30845 255 255 255
-0.562823 1.30977 -4.77669 255 255 255
-0.859128 -0.237339 -4.56492 255 255 255
-0.805296 -0.370736 -5.44022 255 255 255
0.0154911 -0.361139 -4.81559 255 255 255
0.847941 -0.320349 -4.26473 255 255 255
-0.0783461 -0.294211 -3.31931 255 255 255
-0.0353494 -0.292966 -3.29952 255 255 255
-0.700354 1.41533 -4.72369 255 255 255
1.44019 1.51299 -4.97315 255 255 255
1.41738 1.48963 -4.93971 255 255 255
-0.389332 1.4001 -4.90417 255 255 255
-0.389332 1.4001 -4.90417 255 255 255
1.51272 1.42083 -4.89014 255 255 255
1.29731 1.45513 -5.19893 255 255 255
1.36262 1.35308 -5.09057 255 255 255
-0.881853 -0.292099 -4.56228 255 255 255
-0.192883 -0.223639 -3.60414 255 255 255
1.5989 -0.0517543 -5.2477 255 255 255
-0.868998 -0.0861505 -4.06077 255 255 255
-0.864425 -0.113478 -4.04046 255 255 255
-0.830415 -0.215697 -4.99022 255 255 255
-0.613933 1.27992 -4.90167 255 255 255
-0.374212 1.19709 -4.80129 255 255 255
1.58441 1.25732 -4.96188 255 255 255
-0.864533 0.0944342 -4.20743 255 255 255
-0.575752 -0.0957121 -4.96622 255 255 255
-0.0284345 -0.327424 -4.79055 255 255 255
-0.681617 1.45466 -4.78782 255 255 255
-0.653167 1.33528 -4.81495 255 255 255
-0.0495493 -0.212112 -4.45877 255 255 255
1.54506 1.2834 -5.03732 255 255 255
-0.945151 0.161226 -3.32878 255 255 255
-0.961707 0.14 -3.10339 255 255 255
-1.01881 0.10988 -2.47504 255 255 255
-1.03267 -0.306594 -3.16815 255 255 255
-1.02333 0.335429 -2.53063 255 255 255
-1.02703 0.367325 -2.40412 255 255 255
-1.01242 0.0849682 -2.53829 255 255 255
-0.863633 -0.00655855 -3.89892 255 255 255
-1.04729 -0.00965549 -3.18262 255 255 255
-1.10024 0.312063 -1.64517 255 255 255
-12.2801 -12.6724 -11.0754 255 255 255
1.80523 0.321733 -5.41481 255 255 255
1.72212 0.236887 -4.67931 255 255 255
-0.845106 0.0499693 -4.33975 255 255 255
1.44429 -0.124682 -5.56536 255 255 255
1.60379 -0.131029 -5.57198 255 255 255
-0.862965 -0.155491 -5.39413 255 255 255
-0.925427 -0.117515 -4.55695 255 255 255
-0.861197 -0.31589 -4.78816 255 255 255
0.41617 -0.38955 -4.23275 255 255 255
-0.163374 -0.209077 -3.178 255 255 255
-1.30227 -1.2996 -4.48642 255 255 255
-0.394882 1.43225 -4.9905 255 255 255
1.7041 0.273807 -4.6033 255 255 255
-0.876197 0.0922177 -4.20223 255 255 255
-0.927947 -0.114477 -4.45352 255 255 255
-0.867872 -0.224202 -5.26141 255 255 255
-0.867872 -0.224202 -5.26141 255 255 255
-0.869845 -0.396521 -5.30712 255 255 255
-0.307193 1.43717 -6.7328 255 255 255
-0.475687 1.36361 -6.81334 255 255 255
0.843874 -0.37846 -4.65997 255 255 255
-0.349267 1.56129 -4.86149 255 255 255
-0.87139 -0.281516 -4.75789 255 255 255
1.44772 1.39377 -5.10173 255 255 255
-0.901701 -0.0061465 -3.77309 255 255 255
-0.85613 0.0173357 -3.88662 255 255 255
-0.767614 1.45045 -4.89329 255 255 255
-1.01839 0.247945 -2.49822 255 255 255
-1.1967 -0.155156 -2.988 255 255 255
-0.793556 0.113977 -1.38114 255 255 255
-0.749315 0.0966774 -1.36906 255 255 255
-0.796948 0.114098 -1.36371 255 255 255
-0.796948 0.114098 -1.36371 255 255 255
-0.796624 0.104892 -1.36013 255 255 255
-4.96265 1.08198 -6.42256 255 255 255
-1.20846 0.373831 -0.65635 255 255 255
-1.20463 0.348909 -0.692176 255 255 255
1.18871 0.12766 -1.78395 255 255 255
-1.21203 0.388082 -0.647392 255 255 255
1.14271 0.0408035 -0.720103 255 255 255
-1.0555 0.165017 -0.500811 255 255 255
1.14117 0.042148 -0.716301 255 255 255
-1.21369 0.32473 -0.644476 255 255 255
1.13874 0.0152537 -0.713789 255 255 255
1.15721 -0.286054 -0.810581 255 255 255
-1.20481 0.300074 -0.677452 255 255 255
0.209954 -0.162148 0.0829403 255 255 255
-1.42365 -0.0119678 -3.19906 255 255 255
-1.04826 -0.136229 -2.37925 255 255 255
-0.93119 0.124336 -3.47422 255 255 255
-3.47941 0.337667 -9.17997 255 255 255
-1.28901 -0.167659 -2.96277 255 255 255
-1.09171 -0.290754 -2.93736 255 255 255
-3.57778 0.459995 -9.3362 255 255 255
-3.615 0.41791 -9.3826 255 255 255
-1.02356 0.20566 -2.41696 255 255 255
-1.02455 0.205043 -2.42212 255 255 255
-1.02146 0.203607 -2.47278 255 255 255
-0.88559 0.122774 -3.9101 255 255 255
-0.882867 0.119309 -3.95564 255 255 255
-0.954735 0.0968419 -3.19764 255 255 255
-0.963932 0.0856741 -3.08141 255 255 255
-0.956558 0.0832282 -3.16479 255 255 255
-0.956558 0.0832282 -3.16479 255 255 255
-0.826728 0.0246045 -4.63182 255 255 255
-0.857321 -0.0286718 -4.3592 255 255 255
-1.04946 -0.0971325 -2.36704 255 255 255
-1.05048 -0.140548 -2.36045 255 255 255
-1.05584 -0.148872 -2.36393 255 255 255
-0.168012 -0.254163 -3.13065 255 255 255
-1.01163 0.232808 -2.53586 255 255 255
-0.932421 0.127531 -3.51125 255 255 255
-0.839046 0.0143422 -4.5278 255 255 255
-0.838137 -0.0383077 -4.46002 255 255 255
-0.935502 -0.144665 -4.51869 255 255 255
-0.842536 0.0161083 -4.5085 255 255 255
-0.842927 0.016035 -4.5089 255 255 255
-1.10556 -0.287392 -2.83067 255 255 255
-0.87197 0.0456191 -3.86478 255 255 255
-0.176012 -0.207803 -3.15803 255 255 255
-1.17234 0.325412 -0.922268 255 255 255
-1.04539 -0.0374226 -2.35988 255 255 255
-5.56026 -5.75476 -9.77294 255 255 255
-1.18138 -0.160727 -1.77265 255 255 255
-1.04219 -0.0714102 -2.34848 255 255 255
-1.02762 0.240499 -2.40706 255 255 255
-0.961323 0.106918 -3.1005 255 255 255
-0.961193 0.106916 -3.10067 255 255 255
-1.01554 0.0548533 -2.5692 255 255 255
-0.870516 -0.124396 -2.88019 255 255 255
-1.01704 0.246751 -2.5127 255 255 255
-0.952672 0.108232 -3.22869 255 255 255
-3.82394 0.368503 -9.54904 255 255 255
-1.02569 0.0452646 -2.4565 255 255 255
-0.938305 1.90274 -2.34625 255 255 255
-0.938305 1.90274 -2.34625 255 255 255
-3.01627 0.763711 0.0842284 255 255 255
-0.98687 0.0838164 -2.58808 255 255 255
-0.945402 1.8814 -2.31657 255 255 255
-0.945402 1.8814 -2.31657 255 255 255
-1.18874 0.381532 -0.814304 255 255 255
-1.05556 -0.260129 -2.0949 255 255 255
-0.648441 -0.281723 -1.87733 255 255 255
-1.20257 -0.207259 -1.67139 255 255 255
-1.16053 -0.154654 -0.993931 255 255 255
-0.753977 1.6014 -2.37094 255 255 255
-0.753977 1.6014 -2.37094 255 255 255
-0.871073 1.72295 -2.32422 255 255 255
-0.74891 0.545506 -1.8396 255 255 255
-0.753624 0.476168 -1.84086 255 255 255
-0.802991 0.400955 -1.84188 255 255 255
-1.08875 0.33642 -1.74711 255 255 255
-1.05857 0.184276 -1.99728 255 255 255
-1.05857 0.184276 -1.99728 255 255 255
-1.24879 -0.00568399 -3.16706 255 255 255
-0.782085 0.0166444 -1.38133 255 255 255
-0.730862 -0.088423 -1.84575 255 255 255
-1.17804 0.361529 -0.911985 255 255 255
-1.21237 0.327313 -0.595203 255 255 255
-1.20683 0.322346 -0.624349 255 255 255
-1.00002 0.339392 -2.54336 255 255 255
-0.997044 0.0865346 -2.56875 255 255 255
-1.16415 0.105653 -1.05037 255 255 255
-1.17039 -0.221184 -2.04691 255 255 255
-0.774842 -0.23488 -1.33138 255 255 255
-0.689687 -0.254839 -1.47639 255 255 255
-0.642191 -0.273121 -1.69255 255 255 255
-0.664745 -0.245057 -1.39079 255 255 255
-2.44971 -2.14997 -4.68643 255 255 255
-1.04885 0.44165 -1.95025 255 255 255
-1.20613 0.36175 -0.633168 255 255 255
-1.17945 0.352088 -0.879506 255 255 255
-1.18296 0.33818 -0.878887 255 255 255
-0.721207 -0.204534 -1.96638 255 255 255
-0.721207 -0.204534 -1.96638 255 255 255
-0.637773 -0.267887 -1.73785 255 255 255
-1.97261 0.572923 -0.152961 255 255 255
-1.21017 0.385462 -0.52756 255 255 255
-1.08082 0.439491 -1.85088 255 255 255
-1.20948 0.363723 -0.61858 255 255 255
-1.21201 0.333154 -0.586454 255 255 255
-0.790478 0.179455 -1.38539 255 255 255
-1.00462 -0.205913 -2.65036 255 255 255
-1.77223 -0.153008 -0.357162 255 255 255
-0.722075 0.484358 -1.84055 255 255 255
-1.19668 0.0659097 -1.81564 255 255 255
-0.704373 -0.22056 -2.09385 255 255 255
-0.765488 -0.225606 -1.04116 255 255 255
-1.1852 0.0795974 -1.78332 255 255 255
-1.75924 -0.13286 -0.336802 255 255 255
-1.75924 -0.13286 -0.336802 255 255 255
-0.694367 -0.254507 -1.9706 255 255 255
-1.08903 0.265411 -1.76709 255 255 255
-0.70802 -0.227037 -0.8896 255 255 255
-1.18524 -0.163664 -1.92739 255 255 255
-0.983939 0.265046 -2.5511 255 255 255
-0.695675 -0.202791 -1.99095 255 255 255
-0.72934 -0.236967 -1.31603 255 255 255
-0.721168 -0.239535 -1.37171 255 255 255
-0.781281 -0.233885 -0.993083 255 255 255
-1.14223 0.466052 -1.38215 255 255 255
-1.07039 0.340447 -0.910498 255 255 255
-0.869218 0.190914 -0.865822 255 255 255
0.937516 1.80579 -1.05211 255 255 255
-0.894417 1.51522 -0.735636 255 255 255
-0.860286 1.47902 -0.768758 255 255 255
0.975009 1.65329 -1.06584 255 255 255
-1.2413 0.392321 -0.365079 255 255 255
1.51686 0.280556 -1.04713 255 255 255
1.046 1.84004 -0.901088 255 255 255
1.046 1.84004 -0.901088 255 255 255
-1.05778 1.67956 -0.891249 255 255 255
-0.904872 1.15234 -0.814832 255 255 255
1.74923 0.291782 -0.857774 255 255 255
-1.11793 0.187045 -0.0536053 255 255 255
-0.523478 -0.0505316 -0.0656731 255 255 255
1.53589 -0.22322 -0.783748 255 255 255
-0.598793 -0.0539229 -0.00926311 255 255 255
-1.05961 1.67204 -0.831504 255 255 255
0.957263 1.77312 -0.991429 255 255 255
1.18 1.63289 -1.00012 255 255 255
-1.19437 0.34543 -0.70783 255 255 255
-1.24566 0.309559 -0.339934 255 255 255
-1.24566 0.309559 -0.339934 255 255 255
1.61673 -0.128594 -0.80118 255 255 255
1.53649 -0.205471 -0.817819 255 255 255
1.57382 -0.19799 -0.799963 255 255 255
1.57351 -0.219732 -0.800824 255 255 255
1.58431 -0.215918 -0.779581 255 255 255
-1.25806 -0.152426 -0.292099 255 255 255
0.940471 -0.221243 -0.381217 255 255 255
0.948356 -0.217303 -0.0932585 255 255 255
-0.77342 1.82023 -0.862899 255 255 255
-0.743471 1.74606 -0.809355 255 255 255
-1.1894 0.39602 -0.58322 255 255 255
-1.26332 0.34492 -0.294645 255 255 255
-0.820928 0.396463 -0.824198 255 255 255
-1.2485 0.326447 -0.265597 255 255 255
-1.20185 0.366778 -0.958772 255 255 255
-1.24519 0.294789 -0.301869 255 255 255
-1.17154 0.280637 -0.997279 255 255 255
-1.20527 -0.0955201 -0.377425 255 255 255
-0.573687 -0.0186969 -0.0545854 255 255 255
-1.26019 -0.0697757 -0.20557 255 255 255
1.60457 -0.19361 -0.780742 255 255 255
1.60457 -0.19361 -0.780742 255 255 255
1.62379 -0.214214 -0.775675 255 255 255
1.62379 -0.214214 -0.775675 255 255 255
1.09515 -0.208036 -0.719466 255 255 255
1.6823 -0.256624 -0.847557 255 255 255
1.6823 -0.256624 -0.847557 255 255 255
-0.721092 1.93064 -0.839015 255 255 255
-0.718118 1.919 -0.826797 255 255 255
-0.818022 1.89163 -0.858131 255 255 255
-0.753323 1.86805 -0.894333 255 255 255
-0.901395 1.45639 -0.725392 255 255 255
0.996946 1.71119 -1.12033 255 255 255
-1.25108 0.389202 -0.24675 255 255 255
-1.25572 0.341762 -0.258203 255 255 255
-1.32948 -0.0458064 -0.712486 255 255 255
1.68779 -0.167532 -0.823146 255 255 255
-0.553888 -0.0597593 -0.0223102 255 255 255
-0.99194 1.74753 -0.788973 255 255 255
-0.845444 1.63476 -0.758209 255 255 255
-0.821556 1.57678 -0.743312 255 255 255
-1.24665 0.358628 -0.389543 255 255 255
1.62547 -0.162687 -0.793015 255 255 255
-0.32029 -0.138213 -0.196305 255 255 255
-0.417473 -0.0493989 0.154502 255 255 255
0.938081 1.86872 -1.09727 255 255 255
0.938081 1.86872 -1.09727 255 255 255
-0.858545 1.45658 -0.79303 255 255 255
-1.25708 0.367148 -0.270455 255 255 255
-1.19683 0.382024 -0.331415 255 255 255
-1.23791 0.305212 -0.363109 255 255 255
-1.25276 0.292735 -0.272386 255 255 255
-1.25276 0.292735 -0.272386 255 255 255
-1.06692 0.162824 -0.161764 255 255 255
-0.740895 1.87589 -0.841153 255 255 255
-0.792366 1.67893 -0.760923 255 255 255
-1.05865 1.72062 -0.823956 255 255 255
-0.756751 1.70874 -0.833386 255 255 255
-1.24072 0.356642 -0.305972 255 255 255
1.69036 0.375928 -0.865371 255 255 255
1.69036 0.375928 -0.865371 255 255 255
-0.489975 -0.0648068 0.072775 255 255 255
-1.02119 1.76038 -0.740104 255 255 255
-0.906424 1.81305 -0.802354 255 255 255
1.47087 0.416158 -0.880305 255 255 255
1.47087 0.416158 -0.880305 255 255 255
1.50277 0.363011 -1.02356 255 255 255
1.49854 0.364195 -1.01863 255 255 255
1.50277 0.363011 -1.02356 255 255 255
-1.25706 0.248014 -0.187308 255 255 255
0.935192 2.00254 -1.05785 255 255 255
1.46791 0.292247 -0.861316 255 255 255
1.58381 -0.119334 -0.797101 255 255 255
1.44301 -0.156003 -0.790556 255 255 255
-0.790414 1.53603 -3.3624 255 255 255
-0.790414 1.53603 -3.3624 255 255 255
-1.02842 0.362332 -2.3986 255 255 255
-1.03369 0.342609 -2.38186 255 255 255
-1.02304 0.334693 -2.40726 255 255 255
-1.02032 0.235608 -2.46965 255 255 255
-1.02453 0.222003 -2.48776 255 255 255
-1.02597 0.199708 -2.52671 255 255 255
-0.956682 0.179814 -3.17905 255 255 255
-0.955006 0.176404 -3.18672 255 255 255
-0.953165 0.174945 -3.21279 255 255 255
-0.954587 0.170313 -3.1921 255 255 255
-0.955176 0.170486 -3.19226 255 255 255
-0.955148 0.170493 -3.19235 255 255 255
-0.95393 0.165229 -3.18584 255 255 255
-0.942193 0.155755 -3.34966 255 255 255
-0.961456 0.14184 -3.12224 255 255 255
-0.962469 0.142005 -3.12244 255 255 255
-0.958443 0.133929 -3.16123 255 255 255
-0.960758 0.132686 -3.11624 255 255 255
-0.957087 0.132562 -3.21234 255 255 255
-0.955421 0.127691 -3.19216 255 255 255
-0.956173 0.127859 -3.19232 255 255 255
-0.953492 0.126185 -3.21755 255 255 255
-0.926577 0.116811 -3.37349 255 255 255
-0.872714 0.0894657 -4.20373 255 255 255
-0.964998 0.0853044 -3.08162 255 255 255
-0.95206 0.0826334 -3.22781 255 255 255
-1.00789 0.0613471 -2.55172 255 255 255
-0.824099 0.0293024 -4.61146 255 255 255
-1.01343 0.0573921 -2.54492 255 255 255
-0.845204 0.00567748 -4.39859 255 255 255
-0.845204 0.00567748 -4.39859 255 255 255
-0.871198 0.0024248 -3.91891 255 255 255
-0.813448 -0.0178499 -4.67596 255 255 255
-0.848076 -0.0299975 -4.45935 255 255 255
-0.848076 -0.0299975 -4.45935 255 255 255
-0.844654 -0.0453139 -4.48985 255 255 255
-0.848356 -0.043294 -4.33471 255 255 255
-0.861971 -0.0619161 -4.34494 255 255 255
-0.938849 -0.161563 -4.56255 255 255 255
-0.938849 -0.161563 -4.56255 255 255 255
-0.959879 -0.229518 -4.49437 255 255 255
-0.906639 -0.248143 -4.8039 255 255 255
-0.88148 -0.257367 -4.75763 255 255 255
-0.926729 -0.268689 -4.44418 255 255 255
-1.0893 -0.19609 -2.93966 255 255 255
-0.911894 -0.317612 -4.73465 255 255 255
-1.10341 -0.18658 -2.67537 255 255 255
-1.11144 -0.188335 -2.66486 255 255 255
-0.840923 -0.305058 -4.5219 255 255 255
-1.04529 -0.15955 -2.4012 255 255 255
-0.980623 -0.177018 -2.51417 255 255 255
-1.1077 -0.290713 -2.75237 255 255 255
-1.02078 -0.246495 -2.53018 255 255 255
-0.333544 -0.270176 -2.99916 255 255 255
-0.22605 -0.277129 -3.09476 255 255 255
-0.318492 -0.308269 -3.00885 255 255 255
-0.0630665 -0.230616 -3.23397 255 255 255
-0.156738 -0.228591 -2.78307 255 255 255
-0.786621 1.53586 -3.37076 255 255 255
-0.784765 1.50523 -3.35611 255 255 255
-1.02027 0.390145 -3.71556 255 255 255
-0.954561 0.179153 -3.1597 255 255 255
-0.964405 0.141211 -3.10428 255 255 255
-0.998853 0.116179 -2.58569 255 255 255
-0.997195 0.116117 -2.58604 255 255 255
-0.994968 0.0932334 -2.59316 255 255 255
-0.849855 0.0330629 -4.38981 255 255 255
-0.829645 0.0115305 -4.64173 255 255 255
-0.825285 0.0114566 -4.63514 255 255 255
-1.03648 -0.0970454 -3.61708 255 255 255
-1.05927 -0.0987118 -3.4581 255 255 255
-1.0225 -0.108019 -3.61626 255 255 255
-1.09984 -0.151457 -2.8848 255 255 255
-0.852249 -0.296087 -4.82397 255 255 255
-0.929857 -0.324738 -4.61384 255 255 255
-0.176779 -0.23096 -3.14958 255 255 255
-0.324654 -0.297267 -3.00226 255 255 255
-0.171157 -0.238816 -2.84558 255 255 255
-0.674399 1.19826 -3.44147 255 255 255
-1.0105 0.360881 -2.54661 255 255 255
-0.994905 0.159251 -2.42075 255 255 255
-0.864536 0.0468376 -4.40027 255 255 255
-0.812405 0.0140225 -4.46083 255 255 255
-1.05374 -0.190653 -3.44867 255 255 255
-0.910883 -0.247006 -3.5531 255 255 255
-0.873158 -0.248128 -3.54697 255 255 255
-0.925349 -0.268752 -3.55045 255 255 255
-1.0753 -0.299247 -3.04895 255 255 255
-0.998295 -0.280552 -2.48189 255 255 255
-0.160848 -0.215634 -3.17133 255 255 255
-0.324299 -0.275959 -3.00571 255 255 255
-0.334539 -0.313161 -2.99731 255 255 255
-0.783603 1.4212 -3.48919 255 255 255
-0.646804 1.18861 -3.48852 255 255 255
-1.04655 0.410182 -3.72266 255 255 255
-1.00279 0.15346 -2.54734 255 255 255
-0.812868 0.0361422 -4.59064 255 255 255
-0.825101 0.0113847 -4.66352 255 255 255
-0.826271 0.0111516 -4.66465 255 255 255
-0.836912 -0.0108632 -4.56549 255 255 255
-0.854108 -0.0916917 -4.04519 255 255 255
-0.934126 -0.129257 -4.71678 255 255 255
-1.0235 -0.178419 -2.61671 255 255 255
-0.596474 -0.169913 -3.24823 255 255 255
-1.00598 -0.315924 -2.88235 255 255 255
-0.296609 -0.199026 -2.84067 255 255 255
-0.325388 -0.300678 -3.01089 255 255 255
-0.152125 -0.265469 -3.16498 255 255 255
-0.152125 -0.265469 -3.16498 255 255 255
-1.0178 0.337221 -3.70639 255 255 255
-0.822153 0.0276326 -4.68955 255 255 255
-0.286643 -0.183249 -2.84725 255 255 255
-0.249042 -0.214487 -3.09264 255 255 255
-0.336654 -0.270402 -2.99454 255 255 255
-0.999312 0.240337 -2.5304 255 255 255
-1.01227 0.137756 -2.58804 255 255 255
-0.936115 -0.125798 -4.47902 255 255 255
-0.871865 -0.289385 -4.54539 255 255 255
-0.993092 -0.2714 -2.48301 255 255 255
-0.154036 -0.208352 -2.79257 255 255 255
-0.994445 0.0720541 -2.5678 255 255 255
-0.857341 -0.0190346 -3.91181 255 255 255
-0.874118 -0.273182 -3.52271 255 255 255
-0.975215 -0.240288 -2.48736 255 255 255
-0.346292 -0.157333 -3.08276 255 255 255
-0.331518 -0.303755 -3.00063 255 255 255
-0.77364 1.50103 -3.41476 255 255 255
-1.02054 0.269458 -2.45597 255 255 255
-0.861392 0.157756 -3.9239 255 255 255
-0.185155 -0.191051 -2.80528 255 255 255
-0.14588 -0.265962 -3.16965 255 255 255
-0.748349 1.39354 -3.49575 255 255 255
-0.984998 0.10939 -2.61999 255 255 255
-1.09006 -0.154928 -2.69209 255 255 255
-1.0115 -0.105236 -2.4868 255 255 255
-0.191873 -0.158088 -3.26768 255 255 255
-0.257622 -0.224262 -3.07071 255 255 255
-0.568859 0.0192279 -3.39925 255 255 255
-0.192376 -0.147116 -3.18393 255 255 255
-0.167493 -0.185041 -3.17743 255 255 255
-0.133305 -0.270392 -3.19471 255 255 255
-0.133553 -0.340935 -3.21456 255 255 255
-1.05396 -0.0706636 -2.66827 255 255 255
-0.412913 -0.226906 -2.9911 255 255 255
-0.151245 -0.196008 -3.23116 255 255 255
-0.680822 1.5404 -3.74324 255 255 255
-0.795606 1.53724 -3.43131 255 255 255
-0.803378 1.53668 -3.42554 255 255 255
-0.66271 1.20406 -3.50539 255 255 255
-0.955069 0.170504 -3.19237 255 255 255
-0.954288 0.164332 -3.19886 255 255 255
-0.955662 0.146417 -3.09936 255 255 255
-0.998006 0.118546 -2.5935 255 255 255
-0.954913 0.0971144 -3.19764 255 255 255
-0.963804 0.0849158 -3.11376 255 255 255
-0.953746 0.0849017 -3.21163 255 255 255
-0.953746 0.0849017 -3.21163 255 255 255
-1.01708 0.057832 -2.54351 255 255 255
-0.560202 -0.0159051 -3.49102 255 255 255
-0.87573 -0.0321444 -4.09553 255 255 255
-0.600854 -0.0224512 -3.45787 255 255 255
-0.857457 -0.0556633 -4.34806 255 255 255
-0.929072 -0.167133 -4.45151 255 255 255
-0.893898 -0.266966 -4.817 255 255 255
-0.863973 -0.31268 -4.56083 255 255 255
-0.872693 -0.295187 -4.224 255 255 255
-1.05631 -0.238048 -3.11209 255 255 255
-0.90249 -0.32117 -4.27938 255 255 255
-0.932176 -0.345853 -4.44688 255 255 255
-1.10802 -0.283242 -2.7447 255 255 255
-1.01308 -0.27599 -2.51715 255 255 255
-0.434776 -0.274792 -2.9088 255 255 255
-0.414185 -0.272284 -2.92488 255 255 255
-0.332777 -0.298289 -2.99577 255 255 255
-0.173515 -0.305194 -3.14503 255 255 255
-1.02312 0.233972 -2.55042 255 255 255
-0.948938 0.201003 -3.30081 255 255 255
-0.934167 0.127691 -3.51186 255 255 255
-0.753294 0.0308581 -4.90402 255 255 255
-0.943277 0.0359751 -3.32433 255 255 255
-1.04555 -0.115777 -3.54815 255 255 255
-1.02456 -0.200885 -2.62521 255 255 255
-1.09748 -0.252432 -3.00735 255 255 255
-0.967309 -0.26025 -3.25122 255 255 255
-0.194037 -0.223617 -3.58008 255 255 255
-0.216601 -0.232378 -3.57793 255 255 255
-0.19214 -0.227137 -3.58182 255 255 255
-0.204977 -0.238788 -3.57594 255 255 255
-0.230715 -0.211688 -3.10582 255 255 255
-0.415045 -0.267098 -2.92886 255 255 255
-0.899053 -0.251749 -4.20503 255 255 255
-0.830917 -0.333362 -4.94123 255 255 255
-1.01481 -0.291247 -2.52988 255 255 255
-0.253694 -0.170265 -3.10515 255 255 255
-0.0215794 -0.265677 -3.30238 255 255 255
-0.601582 0.913188 -3.50031 255 255 255
-0.902978 0.348982 -3.74712 255 255 255
-0.984775 0.141705 -2.5416 255 255 255
-0.849921 0.066388 -4.46668 255 255 255
-0.973757 0.0381274 -3.27574 255 255 255
-0.852026 -0.00588586 -4.37654 255 255 255
-0.80641 -0.298684 -4.89899 255 255 255
-0.840608 -0.363964 -5.00601 255 255 255
-1.02275 -0.205996 -2.61733 255 255 255
-1.093 -0.27631 -2.84767 255 255 255
-0.127272 -0.225256 -3.65283 255 255 255
-0.129209 -0.226408 -3.64707 255 255 255
-0.426227 -0.236293 -2.94259 255 255 255
-0.019054 -0.267401 -3.30894 255 255 255
-0.0158962 -0.268102 -3.3162 255 255 255
-0.0158962 -0.268102 -3.3162 255 255 255
-0.015819 -0.267575 -3.31076 255 255 255
-0.603942 -0.00424433 -3.45573 255 255 255
-1.04353 -0.144984 -3.47427 255 255 255
-0.861917 -0.274575 -4.16728 255 255 255
-0.321598 -0.299346 -3.01094 255 255 255
-0.0184032 -0.265763 -3.30283 255 255 255
-1.0039 0.152922 -2.54686 255 255 255
-0.867368 -0.169305 -4.18082 255 255 255
-1.10522 -0.180704 -2.65194 255 255 255
-1.08546 -0.27841 -2.73361 255 255 255
-0.188672 -0.220107 -3.5953 255 255 255
-0.419083 -0.302884 -2.92197 255 255 255
-0.333221 -0.285996 -2.9973 255 255 255
-0.0225269 -0.286752 -3.29926 255 255 255
-0.785408 1.42098 -3.46907 255 255 255
-0.778927 1.41255 -3.46621 255 255 255
-0.886002 0.193882 -3.90171 255 255 255
-1.08033 -0.218179 -3.02672 255 255 255
-1.10438 -0.210393 -2.83815 255 255 255
-0.26379 -0.165875 -3.09952 255 255 255
-0.435323 -0.290247 -2.90557 255 255 255
-0.222386 -0.181729 -3.59464 255 255 255
-0.0226467 -0.273539 -3.29358 255 255 255
-0.0184353 -0.278866 -3.31038 255 255 255
-1.08449 -0.16392 -2.69736 255 255 255
-0.878277 0.138435 -3.82721 255 255 255
-0.139691 -0.202208 -3.19608 255 255 255
-0.96221 -0.114829 -3.28889 255 255 255
-0.37592 -0.268632 -2.95996 255 255 255
-0.36853 -0.211902 -2.9861 255 255 255
-0.844122 0.392344 -3.676 255 255 255
-0.844122 0.392344 -3.676 255 255 255
-0.72869 -0.051157 -3.60954 255 255 255
-0.638718 1.27525 -4.89137 255 255 255
1.71015 0.237388 -4.4998 255 255 255
1.7172 0.207637 -4.57633 255 255 255
1.7172 0.207637 -4.57633 255 255 255
-1.03552 0.129158 -4.85934 255 255 255
-0.859822 0.067279 -4.34189 255 255 255
1.03987 -0.212866 -3.95996 255 255 255
0.852512 -0.268997 -4.22915 255 255 255
-0.687312 1.42672 -4.74471 255 255 255
-0.391678 1.37499 -4.92306 255 255 255
-0.475569 1.13526 -4.82586 255 255 255
1.70049 0.217033 -4.48162 255 255 255
1.70049 0.217033 -4.48162 255 255 255
-0.834674 0.0749906 -4.59529 255 255 255
-0.928181 -0.204954 -4.45027 255 255 255
-0.214453 -0.175961 -3.6017 255 255 255
-0.211336 -0.178145 -3.59713 255 255 255
-0.639188 1.41639 -4.79116 255 255 255
-0.934668 -0.228228 -4.44553 255 255 255
-0.848123 -0.351838 -4.77529 255 255 255
-0.201817 -0.223677 -3.57457 255 255 255
-0.657383 1.48967 -4.82492 255 255 255
-0.618655 1.40204 -4.79462 255 255 255
-0.415811 1.40663 -5.09961 255 255 255
-1.00404 0.129503 -4.79739 255 255 255
-0.0318423 -0.279249 -3.31164 255 255 255
-0.0318423 -0.279249 -3.31164 255 255 255
-0.379895 1.24846 -4.83444 255 255 255
-0.379895 1.24846 -4.83444 255 255 255
1.75016 0.0787991 -4.52533 255 255 255
0.875951 -0.216982 -3.8557 255 255 255
0.0634916 -0.226845 -3.82974 255 255 255
-0.896724 -0.145322 -4.7956 255 255 255
-0.578838 1.57652 -4.72133 255 255 255
-0.423331 1.28987 -4.84747 255 255 255
-0.174028 -0.184851 -3.65078 255 255 255
-0.191487 -0.233816 -3.58421 255 255 255
-0.944625 -0.191625 -4.85262 255 255 255
-2.284 -0.452103 -7.34789 255 255 255
1.17219 1.42758 -3.01332 255 255 255
1.11078 -0.315123 -6.53819 255 255 255
-0.789754 0.397503 -1.83208 255 255 255
-0.767593 -0.0909588 -1.84147 255 255 255
-0.774966 -0.121235 -1.83564 255 255 255
-0.697375 0.423297 -1.85636 255 255 255
-1.03873 0.216877 -2.14306 255 255 255
-1.1076 0.443961 -2.1168 255 255 255
-0.561668 -0.254578 -1.40969 255 255 255
1.46325 1.00097 -9.10209 255 255 255
2.14418 -0.163963 -9.24989 255 255 255
1.58797 1.28193 -4.98756 255 255 255
1.71133 -0.252448 -6.95865 255 255 255
-1.01943 -0.242865 -2.48928 255 255 255
1.96031 -0.330732 -8.71098 255 255 255
1.93773 0.0907687 -7.05614 255 255 255
-0.359498 -0.0542937 -9.56764 255 255 255
2.68206 0.577098 -8.69659 255 255 255
-0.953209 0.154443 -3.23098 255 255 255
1.83898 -0.276288 -8.48897 255 255 255
1.67334 -0.407067 -8.03445 255 255 255
1.3561 1.31474 -5.10058 255 255 255
-0.739968 1.49818 -2.32731 255 255 255
0.884577 -0.290401 -2.2795 255 255 255
-1.08756 -0.0657769 -2.08491 255 255 255
-0.770068 1.62326 -2.33339 255 255 255
-0.689392 1.59104 -2.34367 255 255 255
1.8097 0.719802 -8.18596 255 255 255
-3.43581 -1.51429 -9.28256 255 255 255
-0.688046 -0.356915 -6.90171 255 255 255
0.109786 -0.395901 -6.24255 255 255 255
-0.860494 -0.361846 -4.76198 255 255 255
-0.428571 0.016265 -4.89171 255 255 255
-0.469756 -0.184531 -8.10075 255 255 255
2.28932 1.45801 -11.3856 255 255 255
2.62475 0.277259 -2.84093 255 255 255
0.90564 -1.66162 -4.74628 255 255 255
-0.266627 -0.175356 -3.40652 255 255 255
-0.367587 1.35113 -4.77184 255 255 255
-0.937424 0.110993 -3.40686 255 255 255
-0.937424 0.110993 -3.40686 255 255 255
-1.04102 -0.16147 -3.47508 255 255 255
-0.62623 1.03026 -3.5044 255 255 255
-1.0417 -0.152144 -3.51198 255 255 255
-0.908177 0.139296 -3.732 255 255 255
1.83269 -0.267426 -7.22748 255 255 255
1.64615 -0.268353 -7.10928 255 255 255
-0.917452 0.0756894 -3.62515 255 255 255
-0.871664 0.0634324 -4.34458 255 255 255
-0.562935 -0.0623711 -10.0071 255 255 255
-0.561766 1.86545 -2.46356 255 255 255
1.35102 1.43015 -2.87035 255 255 255
-0.15727 1.18781 -8.34797 255 255 255
1.68783 0.327114 -3.87732 255 255 255
1.663 0.0778847 -3.42457 255 255 255
1.64568 0.0836716 -3.23591 255 255 255
1.09272 -0.305526 -1.8974 255 255 255
1.65982 0.174703 -3.78712 255 255 255
1.29375 0.00701359 -3.17822 255 255 255
-0.874865 -0.198526 -4.40381 255 255 255
0.89992 1.93355 -1.08518 255 255 255
-0.356475 -0.0881732 -0.197437 255 255 255
-0.417871 -0.0960664 -0.155787 255 255 255
1.16066 1.43074 -1.00016 255 255 255
-0.981097 -0.211838 -3.40458 255 255 255
-0.70196 -0.143164 -4.50075 255 255 255
4.89164 0.537762 -4.79351 255 255 255
1.4381 0.11736 -2.53396 255 255 255
1.18004 -0.294524 -2.30795 255 255 255
1.14881 0.446872 -2.23682 255 255 255
1.39721 1.01412 -5.06168 255 255 255
-0.497874 1.40259 -6.69861 255 255 255
-0.553085 1.38456 -6.68793 255 255 255
-0.224364 1.19136 -6.80187 255 255 255
1.36763 1.18595 -6.77354 255 255 255
1.34566 0.927297 -6.68045 255 255 255
-0.889528 0.120438 -3.88739 255 255 255
-0.66323 0.046887 -4.79451 255 255 255
1.73272 0.0159275 -4.85907 255 255 255
-0.869857 -0.0697942 -4.33898 255 255 255
-0.860941 -0.218819 -5.14697 255 255 255
0.0205664 -0.361955 -4.84475 255 255 255
0.002605 -0.324488 -3.771 255 255 255
-0.249543 1.08178 -6.60061 255 255 255
-0.295697 1.05878 -6.71341 255 255 255
-0.740971 -0.0639667 -6.00084 255 255 255
-0.740971 -0.0639667 -6.00084 255 255 255
1.45768 -0.134102 -5.52998 255 255 255
-0.857239 -0.182404 -5.23643 255 255 255
1.4995 -0.208377 -5.57657 255 255 255
0.369609 -0.164314 -4.01993 255 255 255
-0.575381 -0.305186 -7.07896 255 255 255
1.92061 -0.459805 -6.89989 255 255 255
-0.872469 -0.387777 -5.21097 255 255 255
0.0400015 -0.373522 -4.82177 255 255 255
0.401076 -0.149869 -4.08623 255 255 255
1.31974 0.933279 -6.66557 255 255 255
-0.843345 0.00953807 -6.70997 255 255 255
0.341947 -0.157437 -4.07785 255 255 255
-0.848739 -0.0668206 -4.46875 255 255 255
-7.82274 -7.80528 -14.9008 255 255 255
-10.0634 -9.7529 -18.578 255 255 255
1.54083 0.865583 -6.84972 255 255 255
1.72361 0.146523 -4.60692 255 255 255
-0.507289 1.11045 -4.87931 255 255 255
-0.855364 -0.264303 -5.17911 255 255 255
-0.902795 -0.00589071 -3.77311 255 255 255
-0.947119 0.130979 -3.32761 255 255 255
-1.16959 -0.235425 -2.02186 255 255 255
1.72459 -0.00012721 -1.22308 255 255 255
1.16279 0.0192453 -0.719342 255 255 255
-1.19559 0.345861 -0.738212 255 255 255
-0.659939 0.0987259 -3.39197 255 255 255
1.126 -0.322668 -2.28171 255 255 255
1.0951 0.0202391 -0.717453 255 255 255
0.980718 -0.221782 -0.619709 255 255 255
-1.88733 -1.96145 -5.38047 255 255 255
-1.72035 0.0961184 -1.63556 255 255 255
-1.10322 0.00115204 -2.90655 255 255 255
-1.09946 -0.253923 -2.8595 255 255 255
-0.987339 -0.0113843 -3.24172 255 255 255
-0.958748 0.173448 -3.17237 255 255 255
-0.952409 0.127324 -3.22607 255 255 255
-0.929561 0.100651 -3.54564 255 255 255
-0.914936 0.081898 -3.68699 255 255 255
-0.856493 -0.0449532 -4.4463 255 255 255
-0.977146 -0.0257288 -3.24117 255 255 255
-0.976701 -0.0369207 -3.24201 255 255 255
-1.09834 -0.111348 -2.85106 255 255 255
-1.05379 -0.140455 -3.44872 255 255 255
-1.00732 -0.13418 -2.94059 255 255 255
-0.931676 -0.373995 -4.43386 255 255 255
-1.09317 -0.294588 -2.93073 255 255 255
-1.09317 -0.294588 -2.93073 255 255 255
-0.910685 -0.0238908 -3.78514 255 255 255
-0.84154 0.0432622 -4.43124 255 255 255
-0.669953 1.30915 -3.50521 255 255 255
-1.09219 -0.0620304 -2.90227 255 255 255
-0.86805 -0.372609 -4.57846 255 255 255
-0.875817 -0.289284 -4.55108 255 255 255
-0.915441 0.0150775 -3.74987 255 255 255
-1.28778 0.519033 -1.65633 255 255 255
-0.943766 0.130787 -3.33681 255 255 255
-1.09085 -0.169067 -3.00624 255 255 255
-0.959126 0.0159007 -3.25528 255 255 255
-1.87468 -1.89969 -4.7632 255 255 255
-1.14349 -0.155123 -1.25411 255 255 255
-0.77783 0.144334 -1.40254 255 255 255
-1.21833 0.393182 -0.536943 255 255 255
-1.16899 0.318313 -0.902093 255 255 255
-1.02148 -0.242564 -1.22587 255 255 255
-0.678571 -0.245369 -1.09878 255 255 255
-0.6706 0.475699 -1.8558 255 255 255
-0.660577 0.321731 -1.83093 255 255 255
-1.19574 0.356449 -0.739579 255 255 255
-3.59361 0.850447 -0.334192 255 255 255
-0.766566 1.588 -2.34662 255 255 255
-0.772145 1.57824 -2.32307 255 255 255
-0.772145 1.57824 -2.32307 255 255 255
-1.19677 0.321654 -0.745011 255 255 255
-0.826226 0.461205 -1.84624 255 255 255
-0.681103 0.378707 -1.83409 255 255 255
-1.17088 0.468492 -1.78994 255 255 255
-1.17313 0.367346 -0.925797 255 255 255
-1.17313 0.367346 -0.925797 255 255 255
-0.87918 1.79586 -2.19949 255 255 255
-0.886947 1.68237 -2.34566 255 255 255
-0.838585 0.258365 -0.779457 255 255 255
-1.17285 -0.146716 -1.95636 255 255 255
-0.844117 0.157877 -0.780346 255 255 255
-0.826955 1.78894 -2.34422 255 255 255
-0.859197 1.705 -2.33543 255 255 255
-0.859197 1.705 -2.33543 255 255 255
-0.880472 2.09235 -2.37208 255 255 255
-0.857125 1.83901 -2.50273 255 255 255
1.08013 1.47739 -3.41595 255 255 255
-1.24913 0.431574 -0.284298 255 255 255
-1.05854 0.29461 -2.35524 255 255 255
0.94329 -0.209225 -0.391479 255 255 255
-0.710726 2.11552 -2.40999 255 255 255
-0.68746 1.41972 -3.43283 255 255 255
-1.24475 0.428661 -0.248219 255 255 255
-1.23277 0.394969 -0.416577 255 255 255
1.17108 0.0938453 -0.7344 255 255 255
-1.25762 -0.129577 -0.260941 255 255 255
-0.998994 1.98469 -0.694186 255 255 255
-0.867543 1.99807 -0.821235 255 255 255
-0.825774 1.94145 -0.785354 255 255 255
1.29436 1.56248 -2.85196 255 255 255
-1.2505 0.421132 -0.266772 255 255 255
-1.2505 0.421132 -0.266772 255 255 255
-1.24968 0.410313 -0.279268 255 255 255
1.17502 -0.204155 -1.74833 255 255 255
1.02572 -0.264913 -1.38242 255 255 255
-0.978846 1.99188 -0.688217 255 255 255
-0.734957 1.76783 -2.44213 255 255 255
1.2668 1.50471 -2.86341 255 255 255
-1.13451 0.0800187 -0.86635 255 255 255
1.0117 -0.237863 -1.38959 255 255 255
1.0117 -0.237863 -1.38959 255 255 255
-0.541893 1.78922 -2.37751 255 255 255
-1.25082 0.388621 -0.246793 255 255 255
1.76339 -0.101357 -1.24524 255 255 255
1.78384 -0.10476 -1.26976 255 255 255
-1.09263 1.80152 -0.751717 255 255 255
1.31839 2.02747 -0.956349 255 255 255
1.30246 1.96868 -1.08044 255 255 255
-1.25375 0.398153 -0.225766 255 255 255
1.83992 0.480195 -0.919662 255 255 255
1.23117 0.175657 -1.52719 255 255 255
-0.803909 2.00869 -0.782032 255 255 255
-1.02811 1.85972 -0.703183 255 255 255
-1.02811 1.85972 -0.703183 255 255 255
-0.773756 1.84769 -2.39571 255 255 255
-0.777847 1.92219 -0.751062 255 255 255
1.64838 0.285813 -0.820267 255 255 255
0.783856 -0.287704 -1.77148 255 255 255
1.53116 0.196819 -0.871865 255 255 255
-0.730964 0.380804 -2.03857 255 255 255
1.30811 -0.286033 -0.724038 255 255 255
-0.958962 0.0931148 -3.14626 255 255 255
-0.865523 0.0835414 -3.98259 255 255 255
-0.917797 0.0849932 -3.67818 255 255 255
-0.917797 0.0849932 -3.67818 255 255 255
-0.933755 0.081486 -3.49504 255 255 255
-0.837778 0.0272376 -4.46961 255 255 255
-0.964937 0.110487 -3.0421 255 255 255
-0.817225 -0.0387018 -4.68526 255 255 255
-1.0508 -0.109831 -3.48852 255 255 255
-0.834876 0.0215891 -4.54714 255 255 255
-0.824522 0.00996273 -4.60047 255 255 255
-0.912975 0.00564406 -3.36097 255 255 255
-0.973145 -0.266331 -3.18949 255 255 255
-0.67074 1.17739 -3.44446 255 255 255
-0.64913 1.49845 -4.75312 255 255 255
-0.645236 1.46769 -4.7475 255 255 255
-0.954694 0.176322 -3.19942 255 255 255
-0.972025 0.14392 -3.10686 255 255 255
-0.960407 0.142803 -3.13249 255 255 255
-0.961905 0.133172 -3.11623 255 255 255
-0.954398 0.133701 -3.17278 255 255 255
-0.950682 0.12927 -3.23973 255 255 255
-0.954762 0.127463 -3.19217 255 255 255
-0.959035 0.122421 -3.16123 255 255 255
-0.959032 0.122386 -3.16122 255 255 255
-0.876654 0.120538 -3.94979 255 255 255
-0.950915 0.106105 -3.05181 255 255 255
-0.960658 0.105075 -3.06901 255 255 255
-0.963853 0.106716 -3.082 255 255 255
-0.9448 0.10639 -3.32798 255 255 255
-0.951837 0.10068 -3.23784 255 255 255
-0.951837 0.10068 -3.23784 255 255 255
-0.953103 0.0957561 -3.21182 255 255 255
-0.96404 0.0904066 -3.06902 255 255 255
-0.958023 0.092135 -3.1185 255 255 255
-0.961447 0.0844938 -3.10005 255 255 255
-0.937818 0.0817387 -3.42957 255 255 255
-0.938582 0.0823596 -3.43012 255 255 255
-0.953119 0.0803894 -3.20434 255 255 255
-0.853312 0.0325033 -4.42941 255 255 255
-0.728677 0.0203743 -4.89287 255 255 255
-0.8574 0.0187456 -4.34022 255 255 255
-0.580973 -0.00177539 -3.49909 255 255 255
-0.848341 -0.0202063 -4.44851 255 255 255
-0.828581 -0.0728595 -4.64752 255 255 255
-1.05041 -0.167571 -3.55135 255 255 255
-0.855655 -0.210201 -4.57138 255 255 255
-0.856251 -0.242686 -4.55316 255 255 255
-0.891511 -0.236352 -4.03773 255 255 255
-0.887332 -0.261369 -4.17472 255 255 255
-0.921082 -0.301069 -4.43711 255 255 255
-0.907341 -0.307733 -4.2479 255 255 255
-1.08957 -0.210609 -2.72259 255 255 255
-0.948177 -0.232149 -3.22524 255 255 255
-0.915608 -0.322506 -4.26766 255 255 255
-0.9096 -0.31915 -4.26168 255 255 255
-0.870315 -0.361054 -4.78269 255 255 255
-1.09306 -0.284097 -2.93073 255 255 255
-0.245486 -0.248238 -3.91332 255 255 255
-0.127108 -0.28664 -3.63846 255 255 255
-0.316944 -0.308735 -3.01279 255 255 255
-7.84937 -6.84665 -7.32792 255 255 255
-0.0412434 -0.272705 -3.27449 255 255 255
-0.0198933 -0.266541 -3.29433 255 255 255
-0.637024 1.465 -4.77943 255 255 255
-0.827641 0.371105 -3.75634 255 255 255
-0.955778 0.0998716 -3.16563 255 255 255
-0.955778 0.0998716 -3.16563 255 255 255
-0.908373 0.0170615 -3.72565 255 255 255
-0.612537 -0.0149023 -3.46023 255 255 255
-1.05638 -0.166114 -3.4514 255 255 255
-1.756 -0.220098 -2.77587 255 255 255
-0.867213 -0.315697 -5.17649 255 255 255
-0.431032 -0.267401 -2.91416 255 255 255
-0.312523 -0.311321 -3.01557 255 255 255
-0.14024 -0.258528 -3.17752 255 255 255
-0.140212 -0.265886 -3.17439 255 255 255
-0.175521 -0.304001 -3.14176 255 255 255
-0.0350031 -0.267165 -3.27871 255 255 255
-0.635641 1.52258 -4.76597 255 255 255
-0.634258 1.48316 -4.78288 255 255 255
-0.634258 1.48316 -4.78288 255 255 255
-0.621762 1.42161 -4.76153 255 255 255
-0.862381 0.393081 -3.70265 255 255 255
-0.959519 0.138635 -3.10322 255 255 255
-0.940497 0.0510903 -3.26733 255 255 255
-0.940497 0.0510903 -3.26733 255 255 255
-0.6775 0.00720254 -4.8273 255 255 255
-0.601365 0.0147188 -3.45916 255 255 255
-0.876941 -0.00563911 -3.78736 255 255 255
-1.03743 0.0118976 -2.62786 255 255 255
-0.800468 -0.0788648 -4.89021 255 255 255
-0.848293 -0.0913461 -4.04041 255 255 255
-0.870616 -0.13542 -4.17543 255 255 255
-0.8904 -0.192862 -4.58135 255 255 255
-0.884914 -0.329546 -4.25279 255 255 255
-0.289106 -0.203266 -3.58688 255 255 255
-0.0411765 -0.125091 -3.15165 255 255 255
-0.873237 -0.329167 -5.16586 255 255 255
-0.873237 -0.329167 -5.16586 255 255 255
-1.04809 -0.22315 -3.10378 255 255 255
-0.159572 -0.162261 -3.19867 255 255 255
-0.0972882 -0.360945 -3.56766 255 255 255
-0.168996 -0.305525 -3.14705 255 255 255
-0.168996 -0.305525 -3.14705 255 255 255
-0.626455 0.144358 -3.47368 255 255 255
-0.837448 -0.0331562 -4.56025 255 255 255
-0.837448 -0.0331562 -4.56025 255 255 255
-0.920453 -0.295457 -4.28029 255 255 255
-0.935906 -0.299965 -4.33095 255 255 255
-0.120368 -0.284527 -3.64533 255 255 255
-0.120368 -0.284527 -3.64533 255 255 255
-0.659284 1.37947 -4.76589 255 255 255
-0.679485 1.41315 -4.84906 255 255 255
-0.86363 -0.239365 -4.62597 255 255 255
-0.883795 -0.238372 -4.05427 255 255 255
-0.149612 -0.241288 -3.62483 255 255 255
-1.10474 -0.107415 -2.69751 255 255 255
-1.10455 -0.164923 -2.83884 255 255 255
-0.95445 -0.262779 -4.39472 255 255 255
-0.241123 -0.231075 -3.08608 255 255 255
-0.851975 0.0838129 -4.46793 255 255 255
-0.241146 -0.166785 -3.12396 255 255 255
-0.828588 0.378526 -3.73654 255 255 255
-1.16435 -0.0240137 -3.07983 255 255 255
-0.148014 -0.219859 -3.17876 255 255 255
-1.05524 0.0271596 -5.36151 255 255 255
-1.03247 0.4616 -4.42455 255 255 255
-0.552055 1.59193 -4.75187 255 255 255
-0.352275 1.35472 -4.8715 255 255 255
-0.377392 1.29207 -4.83544 255 255 255
-0.654563 1.26883 -4.93541 255 255 255
1.4403 1.36353 -5.02268 255 255 255
-0.455558 1.14105 -4.83065 255 255 255
1.74686 0.312259 -4.61067 255 255 255
1.7491 0.26738 -4.65452 255 255 255
1.73657 0.231308 -4.70845 255 255 255
1.69072 0.235804 -4.79303 255 255 255
1.75112 0.231093 -4.73682 255 255 255
1.71738 0.164813 -4.67314 255 255 255
-0.864138 0.106927 -4.37787 255 255 255
1.7482 0.136178 -4.62229 255 255 255
-1.02037 0.126989 -4.87479 255 255 255
-0.84006 0.0524151 -4.59209 255 255 255
1.74 0.0643012 -4.62585 255 255 255
-0.887201 0.0379205 -4.41614 255 255 255
-0.855457 0.0330718 -4.41368 255 255 255
-0.849462 0.0350006 -4.51759 255 255 255
1.75222 0.0489718 -4.75838 255 255 255
-1.72563 0.0312932 -5.64583 255 255 255
-0.846411 0.00530779 -4.44368 255 255 255
-0.845551 0.00603453 -4.51756 255 255 255
-0.845551 0.00603453 -4.51756 255 255 255
1.7395 0.00671763 -4.84801 255 255 255
0.155528 -0.0181199 -3.17368 255 255 255
-0.846579 -0.0263959 -4.47257 255 255 255
-0.858534 -0.0347248 -4.3709 255 255 255
-0.850938 -0.0577425 -4.37751 255 255 255
-0.843539 -0.181538 -5.06034 255 255 255
-0.937532 -0.15665 -4.47817 255 255 255
-0.854506 -0.337561 -4.79313 255 255 255
-0.0361743 -0.279926 -4.4612 255 255 255
-0.816323 -0.355095 -4.84058 255 255 255
-0.759704 -0.35399 -4.66019 255 255 255
-0.027845 -0.225451 -3.94229 255 255 255
